# .PCD v0.7 - Point Cloud Data file format
VERSION 0.7
FIELDS x y z
SIZE 4 4 4
TYPE F F F
COUNT 1 1 1
WIDTH 1594
HEIGHT 1
VIEWPOINT 0 0 0 1 0 0 0
POINTS 1594
DATA ascii
0.10042698 -0.037470952 0.68204165
0.12362666 -0.04575377 0.65722114
0.18382582 -0.066094644 0.67168003
0.25116715 -0.08984074 0.68799561
nan nan nan
1.1087464 -0.39474952 1.8011779
1.3638705 -0.4848015 1.8096343
nan nan nan
nan nan nan
0.1686317 -0.061195869 0.72823459
0.21841718 -0.078703456 0.68555856
0.29046983 -0.10426733 0.70193392
0.99843282 -0.35762453 1.8049095
1.2339015 -0.44126293 1.8099804
1.5080823 -0.53844631 1.8142469
1.6646961 -0.58880776 1.8150022
2.0287061 -0.71677905 1.8172826
2.5175796 -0.88902533 1.835101
3.1969712 -1.1283214 1.8611956
4.2281446 -1.4922673 1.8998736
6.0803943 -2.1448131 1.985124
6.2635117 -2.2081802 1.3523746
nan nan nan
1.836257 -0.65274304 1.816879
2.2573802 -0.80157065 1.8277915
2.8373499 -1.0069662 1.8548293
3.6456299 -1.2924012 1.8755165
5.0076423 -1.7752529 1.9382871
6.2402039 -2.2109897 1.6874495
6.455359 -2.2872252 1.0474085
nan nan nan
nan nan nan
0.10029557 -0.037821278 0.68204165
0.1234662 -0.046185024 0.65722114
0.18359399 -0.066735908 0.67168003
0.25085199 -0.090716928 0.68799561
nan nan nan
1.1073617 -0.39861733 1.8011779
1.3621699 -0.48955932 1.8096343
nan nan nan
nan nan nan
0.16841708 -0.06178413 0.72823459
0.21814111 -0.079465389 0.68555856
0.29215023 -0.10602376 0.70643508
0.99717844 -0.36110753 1.8049095
1.2323536 -0.44556734 1.8099804
1.5093822 -0.54485846 1.8179222
1.6626307 -0.59461504 1.8150022
2.0261917 -0.72385615 1.8172826
2.5105226 -0.8964017 1.8323594
3.197185 -1.140963 1.8635143
4.2229104 -1.5070169 1.8998736
6.0728707 -2.1660247 1.985124
6.2650194 -2.2333293 1.3542398
nan nan nan
1.8339673 -0.65914875 1.816879
2.2545686 -0.8094455 1.8277915
2.8297603 -1.0154083 1.8522962
3.6410964 -1.3051189 1.8755165
4.9969697 -1.7911285 1.9366437
6.2324481 -2.2327585 1.6874495
6.4566598 -2.3130848 1.0487899
nan nan nan
nan nan nan
0.10016294 -0.038171142 0.68204165
0.12330423 -0.046615727 0.65722114
0.18335992 -0.067376375 0.67168003
0.25053379 -0.091592014 0.68799561
0.8801046 -0.32095671 1.7840655
1.1086076 -0.40344274 1.8053107
1.3604527 -0.49431121 1.8096343
nan nan nan
nan nan nan
0.16820039 -0.062371641 0.72823459
0.21948151 -0.080823362 0.69025129
0.29177839 -0.1070429 0.70643508
0.9959119 -0.36458614 1.8049095
1.2307909 -0.44986638 1.8099804
1.5074712 -0.55012381 1.8179222
1.6605449 -0.60041505 1.8150022
2.0236528 -0.73092449 1.8172826
2.5073783 -0.90515965 1.8323594
3.1931829 -1.1521162 1.8635143
4.213263 -1.5201751 1.8980007
6.0607605 -2.1855824 1.9837139
6.2710495 -2.2601817 1.3570377
nan nan nan
1.828146 -0.66427135 1.8135536
2.2517295 -0.81731051 1.8277915
2.8261986 -1.0252799 1.8522962
3.6407855 -1.3193671 1.8776146
4.9906869 -1.8085604 1.9366437
6.2246165 -2.2545004 1.6874495
6.4532027 -2.3372953 1.0494806
nan nan nan
nan nan nan
0.10002909 -0.038520545 0.68204165
0.12219037 -0.046680458 0.65232587
0.18312362 -0.068016008 0.67168003
0.25021255 -0.092465974 0.68799561
0.8722375 -0.32154122 1.7708982
1.1071928 -0.40731007 1.8053107
1.3587189 -0.49905708 1.8096343
nan nan nan
nan nan nan
0.16680497 -0.062516347 0.72339517
0.22081508 -0.082191654 0.69494408
0.29344389 -0.10881814 0.71093631
0.99463314 -0.36806029 1.8049095
1.229213 -0.45415992 1.8099804
1.5055417 -0.55538255 1.8179222
1.658439 -0.60620785 1.8150022
2.0210891 -0.73798388 1.8172826
2.5042036 -0.91390651 1.8323594
3.1891415 -1.1632555 1.8635143
4.207931 -1.5348729 1.8980007
6.0485868 -2.2050819 1.9823039
6.2815833 -2.2887847 1.3607682
nan nan nan
1.8258162 -0.67064875 1.8135536
2.2488627 -0.82516557 1.8277915
2.8185551 -1.0336546 1.8497629
3.6361578 -1.3320677 1.8776146
4.9799094 -1.8243457 1.9350002
6.2167091 -2.2762146 1.6874495
6.4543052 -2.3632121 1.0508618
nan nan nan
nan nan nan
0.099894017 -0.038869478 0.68204165
0.12202668 -0.047106698 0.65232587
0.18288508 -0.068654805 0.67168003
0.25171822 -0.094023004 0.6925981
0.87784243 -0.32709312 1.7840655
1.1057642 -0.41117242 1.8053107
1.3569685 -0.50379682 1.8096343
nan nan nan
nan nan nan
0.16658574 -0.063098222 0.72339517
0.22214171 -0.083570227 0.69963682
0.29306224 -0.10984178 0.71093631
0.99334234 -0.37152997 1.8049095
1.2276202 -0.45844787 1.8099804
1.5004172 -0.55945003 1.8142469
1.6563128 -0.61199313 1.8150022
2.0148494 -0.74368656 1.8141443
2.5009983 -0.92264223 1.8323594
3.189218 -1.1759131 1.8658332
4.202548 -1.5495518 1.8980007
6.0453548 -2.2278409 1.9837139
6.2966037 -2.3191864 1.3654313
nan nan nan
1.8234639 -0.67701793 1.8135536
2.2421787 -0.83160478 1.8248483
2.81493 -1.0434868 1.8497629
3.6272299 -1.3431761 1.8755165
4.9735112 -1.8417177 1.9350002
nan nan nan
6.4553051 -2.3891652 1.0522432
nan nan nan
nan nan nan
0.099035494 -0.0389314 0.67710245
0.12186151 -0.047532365 0.65232587
0.18403964 -0.069823101 0.67645204
0.25138849 -0.094901092 0.6925981
0.87893653 -0.33099958 1.7884545
1.1043222 -0.4150297 1.8053107
1.3552017 -0.5085305 1.8096343
nan nan nan
nan nan nan
0.16636448 -0.06367933 0.72339517
0.22184865 -0.084345147 0.69963682
0.29471263 -0.11163572 0.71543753
0.99203944 -0.37499511 1.8049095
1.2231934 -0.46166617 1.8059905
1.4984553 -0.56468397 1.8142469
1.6541666 -0.61777097 1.8150022
2.0122411 -0.75071514 1.8141443
2.4977622 -0.93136674 1.8323594
3.1850941 -1.1870384 1.8658332
4.197113 -1.5642122 1.8980007
6.0510268 -2.2539527 1.987944
6.2930732 -2.3428652 1.3663639
7.8502612 -2.9210429 0.84491569
1.8210896 -0.68337888 1.8135536
2.2392621 -0.8394264 1.8248483
2.8112702 -1.0533065 1.8497629
3.6225193 -1.3558294 1.8755165
4.9714742 -1.8607225 1.9366437
nan nan nan
6.4515643 -2.4134188 1.0529339
nan nan nan
nan nan nan
0.098898992 -0.039276864 0.67710245
0.12169485 -0.04795745 0.65232587
0.18518826 -0.071000271 0.68122405
0.25105566 -0.095778026 0.6925981
0.87777579 -0.33406565 1.7884545
1.1028668 -0.41888198 1.8053107
1.3534184 -0.51325792 1.8096343
nan nan nan
nan nan nan
0.16614118 -0.064259663 0.72339517
0.22155288 -0.085119024 0.69963682
0.29432115 -0.11266378 0.71543753
0.99072433 -0.3784557 1.8049095
1.2215744 -0.46593308 1.8059905
1.496475 -0.56991118 1.8142469
1.652 -0.62354136 1.8150022
2.0096083 -0.75773454 1.8141443
2.4944961 -0.94007987 1.8323594
3.1809311 -1.1981492 1.8658332
4.1916275 -1.5788532 1.8980007
nan nan nan
6.3354301 -2.3838472 1.3766227
7.8073883 -2.9361567 0.84178615
1.8186932 -0.68973154 1.8135536
2.2363186 -0.84723777 1.8248483
2.8075764 -1.0631132 1.8497629
3.6177642 -1.3684659 1.8755165
4.9649496 -1.8780649 1.9366437
4.3511825 -1.6450343 1.2126609
6.4569969 -2.4411781 1.055006
nan nan nan
nan nan nan
0.098041072 -0.039330274 0.67216319
0.12247191 -0.048760578 0.65722114
0.18493931 -0.071646273 0.68122405
0.25071982 -0.096653789 0.6925981
0.87883973 -0.33798748 1.7928436
1.1013979 -0.42272919 1.8053107
1.3516185 -0.51797909 1.8096343
nan nan nan
nan nan nan
0.16474546 -0.06438078 0.71855575
0.22286287 -0.086517036 0.70432961
0.29595625 -0.11447629 0.71993876
0.98939729 -0.38191167 1.8049095
1.2199405 -0.47019434 1.8059905
1.4944767 -0.57513136 1.8142469
1.6498134 -0.62930411 1.8150022
2.0069511 -0.76474482 1.8141443
2.4911993 -0.94878155 1.8323594
3.1767294 -1.2092454 1.8658332
4.1860909 -1.5934751 1.8980007
4.3762403 -1.6649892 1.4662318
6.3270702 -2.4059477 1.3766227
7.7924361 -2.9616225 0.84133905
1.8162744 -0.69607574 1.8135536
2.2333474 -0.85503882 1.8248483
2.803848 -1.072907 1.8497629
3.6129651 -1.381086 1.8755165
4.9583631 -1.8953844 1.9366437
4.2909274 -1.639396 1.198593
6.4576874 -2.4672372 1.0563873
nan nan nan
nan nan nan
0.097903192 -0.039672263 0.67216319
0.12230095 -0.049187787 0.65722114
0.18607777 -0.07283628 0.685996
0.2503809 -0.097528376 0.6925981
0.87765455 -0.34105316 1.7928436
1.0999156 -0.42657119 1.8053107
1.3498021 -0.52269399 1.8096343
nan nan nan
nan nan nan
0.16451973 -0.064955458 0.71855575
0.2225595 -0.087294444 0.70432961
0.29555485 -0.11550867 0.71993876
0.98805809 -0.38536298 1.8049095
1.2182918 -0.47444984 1.8059905
1.4924599 -0.5803445 1.8142469
1.6476065 -0.63505918 1.8150022
2.0042694 -0.77174574 1.8141443
2.4878724 -0.95747167 1.8323594
3.1724889 -1.2203269 1.8658332
4.1805029 -1.6080775 1.8980007
4.3211484 -1.6613188 1.4507215
6.3369746 -2.4350669 1.3803532
7.8378377 -3.010231 0.84670407
1.8138336 -0.70241147 1.8135536
2.2303491 -0.86282945 1.8248483
2.800086 -1.0826877 1.8497629
3.6081223 -1.3936892 1.8755165
4.9517169 -1.9126807 1.9366437
4.2761097 -1.6508626 1.1962484
6.4628959 -2.4951143 1.0584594
nan nan nan
nan nan nan
0.097764105 -0.040013768 0.67216319
0.12024346 -0.048843972 0.64743066
0.1858224 -0.073485382 0.685996
0.25003895 -0.09840177 0.6925981
0.8764587 -0.34411466 1.7928436
1.0984199 -0.43040803 1.8053107
1.3479695 -0.52740252 1.8096343
nan nan nan
0.066049039 -0.029356418 0.63119239
0.16312483 -0.065062746 0.71371633
0.22225343 -0.088070787 0.70432961
0.29514986 -0.11653964 0.71993876
0.98670697 -0.38880959 1.8049095
1.2166283 -0.47869959 1.8059905
1.4904251 -0.58555067 1.8142469
1.6453798 -0.64080656 1.8150022
2.0015633 -0.77873725 1.8141443
2.484515 -0.9661501 1.8323594
3.16821 -1.2313937 1.8658332
4.1748638 -1.6226606 1.8980007
4.1901212 -1.6277543 1.4112407
nan nan nan
7.8226395 -3.0357699 0.84625697
1.8113708 -0.70873868 1.8135536
2.2273238 -0.87060958 1.8248483
2.7962897 -1.0924551 1.8497629
3.6032355 -1.4062753 1.8755165
4.9406114 -1.928237 1.9350002
4.157114 -1.6216186 1.1669405
6.4726005 -2.5248575 1.0612221
nan nan nan
nan nan nan
0.098340958 -0.040653881 0.67710245
0.12195458 -0.050040402 0.65722114
0.18556476 -0.074133568 0.685996
0.24969393 -0.099273972 0.6925981
0.87525219 -0.34717193 1.7928436
1.0969107 -0.43423963 1.8053107
1.3461202 -0.53210455 1.8096343
nan nan nan
0.067397147 -0.030259088 0.64610696
0.16289672 -0.065631755 0.71371633
0.22194466 -0.088846073 0.70432961
0.29474124 -0.11756919 0.71993876
0.98534375 -0.39225146 1.8049095
1.2149498 -0.48294351 1.8059905
1.488372 -0.59074968 1.8142469
1.6431329 -0.64654613 1.8150022
1.9988327 -0.78571928 1.8141443
2.4772356 -0.97328782 1.8296181
3.1638923 -1.2424451 1.8658332
4.1691747 -1.6372236 1.8980007
4.1085014 -1.6125753 1.3872701
nan nan nan
7.9510841 -3.117594 0.85966927
1.8088858 -0.71505719 1.8135536
2.2205119 -0.87689441 1.8219051
2.7924592 -1.1022094 1.8497629
3.5983047 -1.4188445 1.8755165
4.9338498 -1.9454712 1.9350002
4.1423841 -1.6325552 1.1645958
6.4775691 -2.5528827 1.0632942
nan nan nan
nan nan nan
0.098198459 -0.040996905 0.67710245
nan nan nan
0.18530485 -0.074780859 0.685996
0.24934588 -0.10014497 0.6925981
0.874035 -0.35022506 1.7928436
1.0953883 -0.43806592 1.8053107
1.3442546 -0.53680015 1.8096343
nan nan nan
0.069705494 -0.031623088 0.67096442
0.16266663 -0.066199973 0.71371633
0.22163317 -0.089620262 0.70432961
0.28221512 -0.11371279 0.69293141
0.98396856 -0.39568856 1.8049095
1.2132566 -0.48718154 1.8059905
1.4863009 -0.59594142 1.8142469
1.6375521 -0.65096033 1.8114977
1.996078 -0.79269165 1.8141443
2.4738231 -0.98192912 1.8296181
3.1595359 -1.2534816 1.8658332
4.163434 -1.6517668 1.8980007
4.0359588 -1.6003829 1.3661195
4.2424288 -1.6814011 0.95787627
7.9910831 -3.1655045 0.86458719
1.8063786 -0.721367 1.8135536
2.2174375 -0.88464016 1.8219051
2.784591 -1.1103536 1.8472298
3.5933304 -1.4313962 1.8755165
nan nan nan
4.0869851 -1.6272268 1.1517003
6.4824209 -2.5809736 1.0653661
nan nan nan
nan nan nan
0.098054752 -0.041339431 0.67710245
nan nan nan
0.18504268 -0.075427242 0.685996
0.2508049 -0.10174975 0.69720066
0.87280715 -0.35327387 1.7928436
1.0938525 -0.44188684 1.8053107
1.3423727 -0.54148924 1.8096343
nan nan nan
0.06622009 -0.030273929 0.63616395
0.16243455 -0.06676738 0.71371633
0.221319 -0.090393357 0.70432961
0.2939133 -0.119624 0.71993876
0.98016518 -0.39813927 1.8006437
1.2115486 -0.49141362 1.8059905
1.4842116 -0.60112596 1.8142469
1.63527 -0.65667254 1.8114977
1.9932988 -0.79965442 1.8141443
2.4703805 -0.99055827 1.8296181
3.1551414 -1.264503 1.8658332
4.1576433 -1.6662899 1.8980007
3.9724572 -1.5912716 1.347789
4.2365336 -1.6961999 0.95787627
7.993856 -3.1989298 0.86592847
1.8038497 -0.72766811 1.8135536
2.2143362 -0.89237505 1.8219051
2.7806981 -1.1200669 1.8472298
3.5883119 -1.4439306 1.8755165
3.9169488 -1.5761778 1.5586365
4.0452042 -1.6269734 1.1423218
6.4917498 -2.6109772 1.0681288
nan nan nan
nan nan nan
0.097909853 -0.041681457 0.67710245
nan nan nan
0.18477826 -0.076072693 0.685996
0.24864067 -0.10188328 0.6925981
0.87156874 -0.35631838 1.7928436
1.0923034 -0.44570243 1.8053107
1.3404744 -0.54617167 1.8096343
nan nan nan
0.067557879 -0.031192349 0.6510784
0.16336103 -0.067816824 0.71855575
0.22100212 -0.091165356 0.70432961
nan nan nan
0.97876942 -0.40155828 1.8006437
1.209826 -0.49563971 1.8059905
1.4821043 -0.60630316 1.8142469
1.6329677 -0.66237664 1.8114977
1.9904953 -0.80660754 1.8141443
2.4669077 -0.99917555 1.8296181
3.150708 -1.2755088 1.8658332
4.1560984 -1.6825322 1.8998736
3.931304 -1.5907338 1.3365089
4.1804934 -1.6907183 0.94761741
8.0611305 -3.2585418 0.87352878
1.8012986 -0.73396021 1.8135536
2.2112074 -0.9000991 1.8219051
2.7767713 -1.1297665 1.8472298
3.5832498 -1.4564474 1.8755165
3.9289212 -1.5969534 1.5652106
3.9944687 -1.6227894 1.1305987
6.4963593 -2.6392136 1.0702009
nan nan nan
nan nan nan
0.097763762 -0.04202297 0.67710245
0.1165657 -0.049730256 0.63274503
0.1845116 -0.076717228 0.685996
0.24828352 -0.10275057 0.6925981
0.8703196 -0.35935858 1.7928436
1.0907409 -0.44951254 1.8053107
1.3385596 -0.55084747 1.8096343
nan nan nan
0.066968098 -0.031197149 0.64610696
0.16428216 -0.068873547 0.72339517
0.22068253 -0.091936238 0.70432961
0.77555698 -0.32211736 1.8002301
0.97736174 -0.40497234 1.8006437
1.2080885 -0.49985978 1.8059905
1.4799788 -0.61147296 1.8142469
1.6306456 -0.66807276 1.8114977
1.9876676 -0.81355065 1.8141443
2.4634051 -1.0077806 1.8296181
3.1421361 -1.2848223 1.8635143
4.1459088 -1.6952749 1.8980007
3.8990848 -1.5935581 1.3280487
4.1381865 -1.6904396 0.94015646
18.128218 -7.4016776 1.8508437
1.7987257 -0.74024349 1.8135536
2.2080522 -0.90781218 1.8219051
2.7728109 -1.1394523 1.8472298
3.5781438 -1.4689463 1.8755165
3.9364278 -1.6160382 1.5701411
3.9483087 -1.620116 1.1200478
6.5054336 -2.6693935 1.0729637
nan nan nan
nan nan nan
0.097616479 -0.042363975 0.67710245
0.11732566 -0.050541714 0.63764024
0.18424268 -0.077360831 0.685996
0.24972565 -0.10437054 0.69720066
0.86905986 -0.36239433 1.7928436
1.0891651 -0.4533172 1.8053107
1.3366288 -0.55551654 1.8096343
nan nan nan
0.066858791 -0.031430725 0.64610696
0.166355 -0.070428438 0.73307401
0.22036028 -0.092706002 0.70432961
0.7764352 -0.32566482 1.8047312
0.97594225 -0.40838149 1.8006437
1.2063364 -0.5040738 1.8059905
1.4747066 -0.6153298 1.8105719
1.6283038 -0.67376071 1.8114977
1.9848157 -0.82048404 1.8141443
2.4598722 -1.0163733 1.8296181
3.1376321 -1.2957826 1.8635143
4.139966 -1.7097365 1.8980007
3.9156694 -1.6163102 1.3350989
4.1004739 -1.6917598 0.93362814
17.964153 -7.4079556 1.8374311
1.7961308 -0.74651772 1.8135536
2.2086027 -0.91706419 1.8248483
2.7688165 -1.1491243 1.8472298
3.5729945 -1.4814274 1.8755165
3.8435211 -1.5935966 1.5372709
3.9022164 -1.6171405 1.109497
6.5143752 -2.6996689 1.0757264
nan nan nan
nan nan nan
0.097468004 -0.042704463 0.67710245
0.11621569 -0.05054282 0.63274503
0.18397152 -0.078003481 0.685996
0.25115949 -0.10600182 0.70180315
0.86778963 -0.36542571 1.7928436
1.0875762 -0.45711634 1.8053107
1.3346815 -0.56017888 1.8096343
nan nan nan
0.066748671 -0.03166391 0.64610696
0.16726357 -0.071503676 0.73791343
0.22003534 -0.093474641 0.70432961
0.76928031 -0.32582548 1.7912277
0.97451073 -0.41178566 1.8006437
1.2045693 -0.50828159 1.8059905
1.4725499 -0.62047374 1.8105719
1.6259419 -0.67944044 1.8114977
1.9819396 -0.8274073 1.8141443
2.4563093 -1.0249536 1.8296181
3.1330898 -1.3067269 1.8635143
4.1339726 -1.7241771 1.8980007
3.9542804 -1.6484265 1.3491992
4.0628033 -1.6928375 0.92709976
17.869228 -7.4418979 1.8307251
1.793514 -0.75278282 1.8135536
2.2053881 -0.92476803 1.8248483
2.7608125 -1.1571158 1.8446966
3.5678017 -1.4938905 1.8755165
3.8422911 -1.6088272 1.5389144
3.8651617 -1.6176163 1.1012907
6.53232 -2.7338626 1.0798705
nan nan nan
nan nan nan
0.097318351 -0.043044429 0.67710245
0.11696996 -0.05135956 0.63764024
0.1836981 -0.078645185 0.685996
0.25078794 -0.10687788 0.70180315
0.86650878 -0.36845264 1.7928436
1.085974 -0.4609099 1.8053107
1.3327179 -0.56483436 1.8096343
nan nan nan
0.066637732 -0.031896718 0.64610696
0.16701296 -0.072087094 0.73791343
0.22129336 -0.094923064 0.70902234
0.76213378 -0.32594022 1.777724
0.9730674 -0.41518486 1.8006437
1.2027879 -0.51248318 1.8059905
1.4703751 -0.62561017 1.8105719
1.6235602 -0.68511182 1.8114977
1.9790393 -0.83432055 1.8141443
2.4527166 -1.0335217 1.8296181
3.1244273 -1.3159361 1.8611956
3.9484875 -1.6630191 1.8193333
3.9927151 -1.6808323 1.3632995
4.020647 -1.6917677 0.91963881
17.774284 -7.4752693 1.8240188
1.7908753 -0.75903875 1.8135536
2.2021468 -0.93246067 1.8248483
2.7567565 -1.1667458 1.8446966
3.5625653 -1.5063354 1.8755165
3.7975078 -1.6056784 1.5241228
3.8236737 -1.6159611 1.0919123
6.5455441 -2.7662868 1.0833238
nan nan nan
nan nan nan
0.097167499 -0.04338387 0.67710245
0.11771992 -0.052182179 0.64253545
0.1847923 -0.079878993 0.690768
0.25220767 -0.1085254 0.7064057
0.86521733 -0.3714751 1.7928436
1.0843583 -0.46469784 1.8053107
1.3307382 -0.56948304 1.8096343
nan nan nan
0.066525988 -0.032129131 0.64610696
0.16791221 -0.073172659 0.74275285
0.22096066 -0.095694937 0.70902234
0.76498842 -0.33032492 1.7867265
0.97161222 -0.41857898 1.8006437
1.2009915 -0.51667857 1.8059905
1.4650674 -0.62940067 1.8068967
1.621159 -0.69077498 1.8114977
1.976115 -0.84122354 1.8141443
2.4452462 -1.0404396 1.8268765
3.1198146 -1.3268344 1.8611956
3.904263 -1.6604623 1.8024759
3.9824083 -1.6928823 1.3618895
3.987591 -1.6942666 0.91404313
17.656406 -7.4983339 1.8150772
1.7882149 -0.76528549 1.8135536
2.1988783 -0.94014192 1.8248483
2.752667 -1.1763616 1.8446966
3.5572853 -1.5187619 1.8755165
3.7918797 -1.6189244 1.5241228
3.7911861 -1.6178515 1.0848783
6.5631766 -2.8007803 1.087468
33.378048 -14.243826 1.5575861
nan nan nan
0.09701547 -0.043722782 0.67710245
0.11846557 -0.05301065 0.64743066
0.18451233 -0.080523551 0.690768
0.25361893 -0.11018413 0.71100819
0.86391532 -0.37449297 1.7928436
1.0827297 -0.46848014 1.8053107
1.3287421 -0.57412463 1.8096343
nan nan nan
0.066413432 -0.032361154 0.64610696
0.16765578 -0.073758334 0.74275285
0.22220615 -0.097157627 0.71371514
0.76582611 -0.33386338 1.7912277
0.97014517 -0.42196801 1.8006437
1.1991807 -0.52086771 1.8059905
1.4628614 -0.63451087 1.8068967
1.6187378 -0.69642967 1.8114977
1.9731666 -0.8481164 1.8141443
2.4415996 -1.0489688 1.8268765
3.1192343 -1.3394644 1.8635143
3.7280531 -1.6009104 1.7275547
3.9941075 -1.7143414 1.3675296
3.950052 -1.6946183 0.90751481
17.547739 -7.5245934 1.8070297
1.7855326 -0.77152288 1.8135536
2.1955831 -0.94781166 1.8248483
2.7485442 -1.185963 1.8446966
3.5519624 -1.5311699 1.8755165
3.7645233 -1.6228038 1.5159053
3.7542686 -1.6176119 1.0766721
6.5806475 -2.8354306 1.091612
33.158356 -14.287103 1.5501293
nan nan nan
0.096862257 -0.044061162 0.67710245
0.11920685 -0.053844962 0.65232587
0.18423013 -0.081167132 0.690768
0.25323278 -0.11106876 0.71100819
0.86260289 -0.37750635 1.7928436
1.0810878 -0.47225672 1.8053107
1.3267301 -0.57875937 1.8096343
nan nan nan
0.066300064 -0.032592781 0.64610696
0.16739729 -0.074343115 0.74275285
0.22186564 -0.097932681 0.71371514
0.76465607 -0.33653456 1.7912277
0.96866632 -0.42535183 1.8006437
1.1973552 -0.52505046 1.8059905
1.4637431 -0.64097327 1.8105719
1.616297 -0.7020759 1.8114977
1.970194 -0.85499883 1.8141443
2.4379232 -1.0574851 1.8268765
3.1104758 -1.3485824 1.8611956
3.7139349 -1.6102257 1.7238085
3.9880991 -1.728273 1.3675296
3.9170671 -1.6966814 0.90191907
17.439108 -7.5501862 1.7989823
1.7828286 -0.77775085 1.8135536
2.1922612 -0.95546991 1.8248483
2.7443874 -1.19555 1.8446966
3.5465958 -1.5435592 1.8755165
3.7588358 -1.6359347 1.5159053
3.7173986 -1.6171342 1.0684658
6.6115785 -2.8761628 1.0978281
32.769276 -14.255285 1.5352161
nan nan nan
0.09600275 -0.044072606 0.67216319
0.11994375 -0.05468509 0.65722114
0.18394569 -0.081809722 0.690768
0.25284353 -0.11195203 0.71100819
0.8612799 -0.38051507 1.7928436
1.0794327 -0.47602752 1.8053107
1.3217685 -0.58209509 1.805797
nan nan nan
0.066660598 -0.033066511 0.6510784
0.16599017 -0.074411936 0.73791343
0.22152245 -0.098706543 0.71371514
0.76546603 -0.34008569 1.7957289
0.96717566 -0.42873055 1.8006437
1.1955153 -0.52922678 1.8059905
1.4614968 -0.64607882 1.8105719
1.6138364 -0.70771354 1.8114977
1.9671974 -0.86187088 1.8141443
2.434217 -1.0659887 1.8268765
3.1057494 -1.3594317 1.8611956
3.7167857 -1.6268979 1.7275547
3.9556735 -1.7306471 1.3590695
3.888617 -1.7005032 0.8972559
17.335073 -7.577107 1.7913821
1.780103 -0.78396928 1.8135536
2.1889126 -0.96311653 1.8248483
2.7362516 -1.2033869 1.8421633
3.5411861 -1.5559297 1.8755165
3.7617493 -1.6528447 1.5191925
3.6761284 -1.6144644 1.0590873
6.6151009 -2.9051976 1.0999001
32.632404 -14.331413 1.531387
nan nan nan
0.095848329 -0.04440745 0.67216319
0.12160029 -0.055958584 0.66701156
0.183659 -0.082451314 0.690768
0.25245118 -0.11283393 0.71100819
0.85994637 -0.3835192 1.7928436
1.0777645 -0.47979257 1.8053107
1.3197284 -0.58670533 1.805797
nan nan nan
0.067018621 -0.033543155 0.65604991
0.16343984 -0.073952772 0.72823459
0.22275005 -0.10018768 0.71840787
0.76427424 -0.34275562 1.7957289
0.96567321 -0.43210399 1.8006437
1.1936606 -0.53339672 1.8059905
1.4592327 -0.65117645 1.8105719
1.6113561 -0.71334261 1.8114977
1.964177 -0.86873239 1.8141443
2.4304812 -1.0744791 1.8268765
3.1050367 -1.3720549 1.8635143
3.6729205 -1.6229979 1.7106974
3.8399053 -1.6959909 1.3238187
3.8556948 -1.7021635 0.89166027
17.231066 -7.6033955 1.7837818
1.7739435 -0.7886613 1.810228
2.1855373 -0.9707514 1.8248483
2.7320342 -1.2129309 1.8421633
3.5315845 -1.5664409 1.8734185
3.6135092 -1.6027819 1.4649566
3.6393664 -1.6134968 1.050881
6.6230278 -2.9362993 1.1026628
32.53194 -14.422963 1.52917
nan nan nan
0.094989911 -0.044410426 0.66722393
0.12324938 -0.057244301 0.67680198
0.18337008 -0.0830919 0.690768
0.25205579 -0.11371447 0.71100819
0.8586024 -0.38651863 1.7928436
1.0760831 -0.48355174 1.8053107
1.3176725 -0.59130847 1.805797
nan nan nan
0.066901125 -0.03377689 0.65604991
0.16089475 -0.073476732 0.71855575
0.22239898 -0.10096461 0.71840787
0.76307315 -0.34542134 1.7957289
0.96415895 -0.43547222 1.8006437
1.1917914 -0.53756011 1.8059905
1.4569508 -0.65626615 1.8105719
1.6088564 -0.71896297 1.8114977
1.9611325 -0.87558347 1.8141443
2.4267156 -1.0829566 1.8268765
3.0961831 -1.3810806 1.8611956
3.6333625 -1.6207007 1.6957132
3.7813859 -1.6859431 1.3068981
3.8228083 -1.7036145 0.88606447
17.131632 -7.6310749 1.7766284
1.7711799 -0.79484874 1.810228
2.1821356 -0.97837448 1.8248483
2.7277834 -1.2224602 1.8421633
3.5219531 -1.5769044 1.8713205
3.6078923 -1.6153857 1.4649566
3.6026559 -1.6122921 1.0426749
6.6082177 -2.9573772 1.1019721
32.481396 -14.536432 1.52917
nan nan nan
0.094834313 -0.044741735 0.66722393
0.12304882 -0.057674173 0.67680198
0.18172181 -0.083109863 0.685996
0.25165734 -0.11459362 0.71100819
0.85724795 -0.38951334 1.7928436
1.0743886 -0.48730502 1.8053107
1.3156003 -0.59590441 1.805797
nan nan nan
0.067254946 -0.034257669 0.66102141
0.15835501 -0.072983839 0.70887691
0.22361372 -0.10245977 0.72310066
0.76186275 -0.34808287 1.7957289
0.96263301 -0.43883508 1.8006437
1.1899078 -0.54171699 1.8059905
1.4546511 -0.66134787 1.8105719
1.606337 -0.72457451 1.8114977
1.9545157 -0.88082445 1.8110057
2.4229207 -1.0914208 1.8268765
3.0913434 -1.3918799 1.8611956
3.5980926 -1.6200502 1.6826018
3.7054863 -1.6676328 1.2843376
3.7944391 -1.7068723 0.88140136
17.032221 -7.6581535 1.7694751
1.7683946 -0.80102646 1.810228
2.1787074 -0.98598558 1.8248483
2.7234998 -1.2319745 1.8421633
3.5122914 -1.5873196 1.8692224
3.5893219 -1.6221353 1.460026
3.5659981 -1.6108508 1.0344685
nan nan nan
32.617126 -14.73405 1.5374329
nan nan nan
0.09467756 -0.045072496 0.66722393
0.1237663 -0.058540568 0.68169725
0.18143059 -0.083743677 0.685996
0.25125578 -0.11547136 0.71100819
0.85588306 -0.39250335 1.7928436
1.0726812 -0.49105236 1.8053107
1.3105972 -0.59916031 1.8019594
nan nan nan
0.067134954 -0.034492224 0.66102141
0.15582073 -0.072474122 0.69919807
0.22325471 -0.10323972 0.72310066
0.76064306 -0.35074013 1.7957289
0.96109533 -0.44219261 1.8006437
1.1880095 -0.5458672 1.8059905
1.4523337 -0.66642147 1.8105719
1.6037979 -0.73017722 1.8114977
1.9514289 -0.88764155 1.8110057
2.4190962 -1.0998716 1.8268765
3.0864658 -1.4026623 1.8611956
3.5628719 -1.6191736 1.6694906
3.6384971 -1.6527817 1.2645973
3.7571483 -1.7058911 0.87487304
16.928293 -7.6825733 1.7618748
1.7655877 -0.80719441 1.810228
2.1752522 -0.99358463 1.8248483
2.7191827 -1.2414738 1.8421633
3.4984703 -1.5958029 1.8650262
3.5836375 -1.6346545 1.460026
3.5338178 -1.6111901 1.0274347
6.7631378 -3.0835595 1.1289088
32.783695 -14.947297 1.5471064
nan nan nan
0.095218956 -0.045741368 0.67216319
0.1235612 -0.058972239 0.68169725
0.18113716 -0.084376477 0.685996
0.24907912 -0.11552514 0.7064057
0.8545078 -0.39548856 1.7928436
1.0709605 -0.49479371 1.8053107
1.3084978 -0.60373151 1.8019594
nan nan nan
0.067014143 -0.034726359 0.66102141
0.15329191 -0.071947604 0.68951923
0.22289298 -0.10401838 0.72310066
0.75941414 -0.35339311 1.7957289
0.95954597 -0.44554478 1.8006437
1.1860968 -0.5500108 1.8059905
1.4499986 -0.67148703 1.8105719
1.6012393 -0.73577106 1.8114977
1.9483187 -0.89444792 1.8110057
2.415242 -1.1083093 1.8268765
3.0815508 -1.4134275 1.8611956
3.5319152 -1.6200037 1.6582524
3.5585752 -1.6314859 1.2406267
3.7243764 -1.706717 0.8692773
16.82893 -7.708436 1.7547215
1.7627593 -0.81335258 1.810228
2.1680999 -0.99947947 1.8219051
2.7148328 -1.2509578 1.8421633
3.4805112 -1.6023114 1.8587321
3.5779097 -1.6471539 1.460026
3.5060945 -1.6133561 1.0215732
nan nan nan
32.849319 -15.115943 1.5523462
nan nan nan
0.095058709 -0.046073467 0.67216319
0.1233546 -0.059403189 0.68169725
0.18084154 -0.085008256 0.685996
0.24690516 -0.11556514 0.70180315
0.85312212 -0.39846891 1.7928436
1.0692269 -0.49852905 1.8053107
1.3063824 -0.60829538 1.8019594
nan nan nan
0.06689252 -0.034960072 0.66102141
0.15190428 -0.071943298 0.68467981
0.22408947 -0.10553164 0.72779346
0.75817591 -0.35604185 1.7957289
0.95798492 -0.44889152 1.8006437
1.1841697 -0.55414772 1.8059905
1.4476458 -0.67654437 1.8105719
1.5986612 -0.74135602 1.8114977
1.9451846 -0.90124339 1.8110057
2.4113586 -1.1167332 1.8268765
3.0725782 -1.4223145 1.8588767
3.5009968 -1.6206377 1.6470143
3.4962614 -1.6177102 1.2222962
3.6916454 -1.7073351 0.86368161
16.729595 -7.7336984 1.7475684
1.7599095 -0.8195008 1.810228
2.164598 -1.0070415 1.8219051
2.7104495 -1.2604268 1.8421633
3.462549 -1.608714 1.852438
3.5678563 -1.6576434 1.4583826
3.4739909 -1.6133014 1.0145392
nan nan nan
33.072758 -15.358876 1.5646396
nan nan nan
0.094897307 -0.046405002 0.67216319
0.12314649 -0.059833415 0.68169725
0.18189199 -0.086279497 0.690768
0.24650027 -0.1164263 0.70180315
0.851726 -0.40144444 1.7928436
1.0674801 -0.5022583 1.8053107
1.3042511 -0.61285174 1.8019594
nan nan nan
0.066770084 -0.035193354 0.66102141
0.15165223 -0.072473109 0.68467981
0.22371975 -0.10631322 0.72779346
0.75692856 -0.35868621 1.7957289
0.95641214 -0.45223275 1.8006437
1.1822282 -0.5582779 1.8059905
1.4452754 -0.68159348 1.8105719
1.5960637 -0.74693185 1.8114977
1.9420269 -0.90802783 1.8110057
2.4074459 -1.1251435 1.8268765
3.0675945 -1.4330312 1.8588767
3.478518 -1.6249999 1.6395221
3.3601964 -1.5690165 1.1799952
3.6589553 -1.7077454 0.85808587
16.630289 -7.7583618 1.7404151
1.7570381 -0.82563901 1.810228
2.1610696 -1.0145912 1.8219051
2.7060332 -1.2698803 1.8421633
3.4486935 -1.6169373 1.8482418
3.5577726 -1.6680828 1.4567391
3.4463317 -1.6151049 1.0086776
11.452203 -5.3670359 1.8561949
nan nan nan
nan nan nan
0.094734736 -0.046735972 0.67216319
0.12293689 -0.060262915 0.68169725
0.18158971 -0.086913891 0.690768
0.24432904 -0.11644498 0.69720066
0.8503195 -0.40441507 1.7928436
1.0657203 -0.50598145 1.8053107
1.3021039 -0.61740071 1.8019594
nan nan nan
0.067114577 -0.035681874 0.66599292
0.15139833 -0.073002025 0.68467981
0.22334728 -0.1070935 0.72779346
0.75567186 -0.36132619 1.7957289
0.95482773 -0.45556852 1.8006437
1.1802722 -0.56240118 1.8059905
1.4459485 -0.68809104 1.8142469
1.5934466 -0.75249857 1.8114977
1.9388454 -0.91480124 1.8110057
2.4035037 -1.1335403 1.8268765
3.0665808 -1.4456193 1.8611956
3.4308908 -1.6173642 1.6207917
3.3546994 -1.5807362 1.1799952
3.626308 -1.7079488 0.85249019
16.531015 -7.7824268 1.7332618
1.7541454 -0.8317672 1.810228
2.1575148 -1.0221286 1.8219051
2.7015841 -1.2793183 1.8421633
3.4307213 -1.6231426 1.8419477
3.4622893 -1.6380812 1.4222254
3.4143088 -1.6146568 1.0016438
11.419969 -5.4006271 1.8541228
nan nan nan
nan nan nan
0.094571024 -0.047066372 0.67216319
0.12363756 -0.061144881 0.68659246
0.18128522 -0.08754722 0.690768
0.2720874 -0.13085265 0.770841
0.84890264 -0.40738076 1.7928436
1.0639477 -0.50969845 1.8053107
1.3028322 -0.62332559 1.805797
nan nan nan
0.066989616 -0.035915926 0.66599292
0.15114258 -0.07353007 0.68467981
0.22141893 -0.10712032 0.72310066
0.75440598 -0.36396176 1.7957289
0.95323169 -0.45889869 1.8006437
1.1783019 -0.56651771 1.8059905
1.4435377 -0.69313419 1.8142469
1.5908103 -0.75805616 1.8114977
1.9356403 -0.92156351 1.8110057
2.3957567 -1.1401263 1.8241352
3.061516 -1.4563149 1.8611956
3.3917334 -1.613399 1.6058074
3.336164 -1.586257 1.1757652
3.5937037 -1.707945 0.84689444
16.431778 -7.8058929 1.7261086
1.7512313 -0.83788526 1.810228
2.1539338 -1.0296534 1.8219051
2.6971018 -1.2887409 1.8421633
3.4168427 -1.6311976 1.8377515
3.3841054 -1.6155715 1.3942857
3.3823314 -1.6140054 0.99460983
11.387639 -5.4340591 1.8520507
nan nan nan
nan nan nan
0.094406158 -0.047396202 0.67216319
0.12524377 -0.062488869 0.69638294
0.18232004 -0.088834092 0.69553995
0.55105972 -0.26748595 1.5026424
0.84747547 -0.41034153 1.7928436
1.0621622 -0.5134092 1.8053107
1.3006485 -0.62786955 1.805797
nan nan nan
0.066863835 -0.036149547 0.66599292
0.150885 -0.074057207 0.68467981
0.22104368 -0.10789257 0.72310066
0.75117368 -0.36563998 1.7912277
0.95162398 -0.46222332 1.8006437
1.173606 -0.56931204 1.8020003
1.4411095 -0.69816881 1.8142469
1.5881546 -0.76360452 1.8114977
1.9289035 -0.92662907 1.8078673
2.3917623 -1.1484822 1.8241352
3.0564139 -1.4669927 1.8611956
3.3442864 -1.6051681 1.5870771
3.2743809 -1.5709176 1.1574347
3.5611446 -1.7077347 0.84129876
16.33707 -7.8309155 1.7194023
1.7482959 -0.84399307 1.810228
2.1503265 -1.0371659 1.8219051
2.6925869 -1.2981477 1.8421633
3.4193058 -1.647054 1.8419477
3.3188846 -1.5986842 1.3712766
3.3547797 -1.6152591 0.98874819
11.34183 -5.4608865 1.8479067
nan nan nan
nan nan nan
0.094240144 -0.047725454 0.67216319
0.12593348 -0.063385233 0.70127815
0.18200883 -0.089469969 0.69553995
0.66065222 -0.32355568 1.7926013
0.84388602 -0.41224587 1.7884545
1.0578344 -0.51588017 1.8011779
1.2984488 -0.63240582 1.805797
nan nan nan
0.066272199 -0.036122181 0.66102141
0.15175153 -0.07514213 0.68951923
0.22066571 -0.10866349 0.72310066
0.74989271 -0.36825985 1.7912277
0.95000476 -0.46554229 1.8006437
1.1716118 -0.57340521 1.8020003
1.4386637 -0.70319498 1.8142469
1.5854793 -0.76914352 1.8114977
1.925657 -0.93335664 1.8078673
2.3877387 -1.156824 1.8241352
3.0512745 -1.4776527 1.8611956
3.2969391 -1.596626 1.5683469
3.2688773 -1.5823379 1.1574347
3.5286305 -1.7073178 0.83570302
16.251352 -7.8597069 1.7135903
1.7453393 -0.85009062 1.810228
2.146693 -1.0446656 1.8219051
2.6841626 -1.3056531 1.8396302
3.4216995 -1.6629471 1.8461437
3.30479 -1.6061313 1.3679895
3.3228884 -1.6142161 0.98171431
11.309336 -5.4939518 1.8458346
nan nan nan
nan nan nan
0.094072968 -0.048054121 0.67216319
0.12661844 -0.064287171 0.70617342
0.18303235 -0.090768695 0.70031196
0.6577673 -0.32499421 1.7879989
0.84244186 -0.41518906 1.7884545
1.0560271 -0.51956958 1.8011779
1.2962334 -0.6369344 1.805797
nan nan nan
0.066145703 -0.036353298 0.66102141
0.15148832 -0.075671382 0.68951923
0.22028506 -0.10943309 0.72310066
0.74860269 -0.37087521 1.7912277
0.94837391 -0.46885559 1.8006437
1.169603 -0.57749146 1.8020003
1.4362004 -0.70821255 1.8142469
1.5827848 -0.77467316 1.8114977
1.9223874 -0.94007266 1.8078673
2.3874426 -1.1669879 1.8268765
3.0421178 -1.4863498 1.8588767
3.2913461 -1.6081249 1.5683469
3.2417817 -1.5832129 1.1503845
3.491749 -1.7045403 0.82917464
16.170111 -7.8901811 1.7082254
1.7423612 -0.85617781 1.810228
2.1430335 -1.0521525 1.8219051
2.6795888 -1.3150146 1.8396302
3.4240239 -1.6788771 1.8503399
3.2567639 -1.5968679 1.3515544
3.2997751 -1.6172488 0.97702503
11.272304 -5.5246782 1.8430719
nan nan nan
nan nan nan
0.093904659 -0.048382204 0.67216319
0.12639327 -0.064728759 0.70617342
0.1827144 -0.091407038 0.70031196
0.64788687 -0.32292968 1.7649863
0.84098744 -0.41812715 1.7884545
1.0542071 -0.52325261 1.8011779
1.2940022 -0.64145523 1.805797
nan nan nan
0.066018403 -0.036583968 0.66102141
0.15122324 -0.076199718 0.68951923
0.21990171 -0.11020137 0.72310066
0.74730361 -0.37348607 1.7912277
0.94673145 -0.47216317 1.8006437
1.16758 -0.58157057 1.8020003
1.4337195 -0.71322155 1.8142469
1.5800711 -0.78019345 1.8114977
1.9190941 -0.9467774 1.8078673
2.3833549 -1.1753145 1.8268765
3.0369108 -1.4969597 1.8588767
3.2732377 -1.6134549 1.5627277
3.2233264 -1.5881587 1.1461545
3.4593368 -1.7036963 0.82357895
16.084387 -7.917984 1.7024132
1.739362 -0.86225456 1.810228
2.1357255 -1.0578326 1.818962
2.6749823 -1.32436 1.8396302
3.430347 -1.6968559 1.856634
3.2257745 -1.595664 1.3416934
3.2723243 -1.6179855 0.97116345
11.261828 -5.5683823 1.8444533
nan nan nan
nan nan nan
0.094423525 -0.049070161 0.67710245
0.12707028 -0.065638609 0.71106863
0.18372646 -0.092717543 0.70508391
0.6467557 -0.32518926 1.7649863
0.83952278 -0.42106023 1.7884545
1.052374 -0.52692926 1.8011779
1.2917552 -0.6459682 1.805797
nan nan nan
0.065890297 -0.03681419 0.66102141
0.15207641 -0.077297576 0.69435865
0.21951571 -0.1109683 0.72310066
0.74599528 -0.37609237 1.7912277
0.9450776 -0.475465 1.8006437
1.1655428 -0.5856427 1.8020003
1.4312211 -0.71822178 1.8142469
1.577338 -0.7857042 1.8114977
1.9192621 -0.95520473 1.8110057
2.3792374 -1.183627 1.8268765
3.0277004 -1.505579 1.856558
3.2675858 -1.6248707 1.5627277
3.1962848 -1.5887245 1.1391042
3.4225745 -1.7004615 0.81705064
16.003128 -7.9475002 1.6970483
1.7363415 -0.86832082 1.810228
2.13202 -1.0652813 1.818962
2.6703432 -1.3336895 1.8396302
3.4365854 -1.7148992 1.8629282
3.182157 -1.5879378 1.3269018
3.2492585 -1.62072 0.96647424
nan nan nan
nan nan nan
nan nan nan
0.094251662 -0.049399458 0.67710245
0.12684038 -0.06608177 0.71106863
0.18340169 -0.093358308 0.70508391
0.6491012 -0.3292127 1.7741913
0.83804792 -0.42398816 1.7884545
1.0505283 -0.53059953 1.8011779
1.2866307 -0.64902967 1.8019594
nan nan nan
0.065761395 -0.037043963 0.66102141
0.15180567 -0.077827953 0.69435865
0.21912703 -0.11173388 0.72310066
0.74467796 -0.37869409 1.7912277
0.94341218 -0.47876105 1.8006437
1.1634915 -0.58970755 1.8020003
1.4287053 -0.72321332 1.8142469
1.5745858 -0.79120535 1.8114977
1.9159161 -0.96189839 1.8110057
2.3750916 -1.1919248 1.8268765
3.0224268 -1.5161386 1.856558
3.261894 -1.6362668 1.5627277
3.1735668 -1.5912713 1.1334641
3.4210095 -1.7145991 0.81798321
15.912955 -7.9720855 1.6907892
1.7333 -0.87437654 1.810228
2.1282885 -1.0727168 1.818962
2.6618216 -1.3410629 1.837097
3.4386866 -1.7309661 1.8671243
3.1470697 -1.5841733 1.3153973
3.2262132 -1.6233131 0.9617849
nan nan nan
30.364902 -15.278592 1.4648818
nan nan nan
0.094078653 -0.049728159 0.67710245
0.12660895 -0.066524118 0.71106863
0.1830747 -0.093997918 0.70508391
0.64794815 -0.33147645 1.7741913
0.83656281 -0.42691091 1.7884545
1.0461624 -0.53298581 1.7970449
1.2843574 -0.65351689 1.8019594
nan nan nan
0.065631688 -0.037273288 0.66102141
0.15153307 -0.078357376 0.69435865
0.21873565 -0.11249809 0.72310066
0.74335152 -0.38129118 1.7912277
0.93941373 -0.48086274 1.7963778
1.1614259 -0.59376532 1.8020003
1.426172 -0.72819602 1.8142469
1.5686334 -0.79508442 1.8079931
1.9125466 -0.96858031 1.8110057
2.3671856 -1.1983196 1.8241352
3.0171161 -1.5266795 1.856558
3.2478898 -1.6434568 1.5589817
3.1465895 -1.5915136 1.1264139
3.3667812 -1.7021501 0.80772436
15.827248 -7.998383 1.6849772
1.7302372 -0.88042158 1.810228
2.1245308 -1.0801395 1.818962
2.6571243 -1.3503462 1.837097
3.4447634 -1.7491231 1.8734185
3.1246789 -1.5865972 1.3088232
3.2031898 -1.6257653 0.95709562
3.5281534 -1.7907028 0.64405131
30.24456 -15.350575 1.4618589
nan nan nan
0.09458901 -0.050423902 0.68204165
0.12637596 -0.066965662 0.71106863
0.18407059 -0.095323563 0.70985591
0.64852309 -0.33463225 1.7787938
0.83506745 -0.42982844 1.7884545
1.0442957 -0.53663439 1.7970449
1.2820684 -0.65799612 1.8019594
nan nan nan
0.065501176 -0.037502158 0.66102141
0.15125862 -0.078885846 0.69435865
0.21987318 -0.11405616 0.72779346
0.74201602 -0.38388366 1.7912277
0.93772942 -0.484139 1.7963778
1.1593462 -0.59781587 1.8020003
1.4236215 -0.73316991 1.8142469
1.5658485 -0.80055511 1.8079931
1.9091541 -0.97525048 1.8110057
2.3629885 -1.2065753 1.8241352
3.0117686 -1.5372019 1.856558
3.2297456 -1.6484615 1.5533626
3.1196496 -1.5915874 1.1193638
3.4045799 -1.7362087 0.81705064
15.737117 -8.0219183 1.6787181
1.7271534 -0.88645583 1.810228
2.1207476 -1.0875489 1.818962
2.6523945 -1.3596131 1.837097
3.438637 -1.7611369 1.8734185
3.1023095 -1.5888841 1.3022492
3.1801891 -1.6280768 0.95240635
3.4733932 -1.7781843 0.63645387
29.857264 -15.285306 1.446744
nan nan nan
0.095095657 -0.051123805 0.6869809
0.12614144 -0.067406386 0.71106863
0.18373671 -0.095965512 0.70985591
0.64735109 -0.33689401 1.7787938
0.83356202 -0.43274075 1.7884545
1.0424161 -0.54027635 1.7970449
1.2769173 -0.66099387 1.7981219
nan nan nan
0.065369874 -0.037730571 0.66102141
0.15098235 -0.079413362 0.69435865
0.21947369 -0.11482297 0.72779346
0.74067152 -0.38647145 1.7912277
0.93603379 -0.48740932 1.7963778
1.1572524 -0.60185909 1.8020003
1.4180452 -0.73657203 1.8105719
1.5630444 -0.80601609 1.8079931
1.9057382 -0.98190868 1.8110057
2.3587623 -1.2148163 1.8241352
3.0063844 -1.5477055 1.856558
3.1951191 -1.6448717 1.5402514
3.0927477 -1.5914924 1.1123136
3.4072351 -1.7525761 0.81891584
15.647017 -8.0449228 1.672459
1.7240486 -0.8924793 1.810228
2.1169384 -1.094945 1.818962
2.6438029 -1.3668835 1.8345639
3.4324682 -1.7731292 1.8734185
3.075767 -1.5888672 1.2940316
3.1572113 -1.6302474 0.94771707
3.4671652 -1.790298 0.63645387
nan nan nan
nan nan nan
0.095598549 -0.051827859 0.69192016
0.12590538 -0.067846291 0.71106863
0.18340062 -0.096606292 0.70985591
0.64617115 -0.33915159 1.7787938
0.83204639 -0.43564782 1.7884545
1.0405238 -0.54391176 1.7970449
1.2746022 -0.66544706 1.7981219
nan nan nan
0.065237768 -0.037958525 0.66102141
0.15070422 -0.079939902 0.69435865
0.21907157 -0.11558837 0.72779346
0.73931789 -0.38905451 1.7912277
0.93432671 -0.49067369 1.7963778
1.1551446 -0.60589498 1.8020003
1.4154655 -0.74151748 1.8105719
1.5602216 -0.81146723 1.8079931
1.8988454 -0.9867602 1.8078673
2.3545074 -1.2230426 1.8241352
3.0009637 -1.5581905 1.856558
3.1605575 -1.6410604 1.5271401
3.0658848 -1.5912293 1.1052635
3.4185386 -1.7735075 0.82264632
15.561367 -8.0696898 1.666647
1.7209227 -0.89849192 1.810228
2.1131034 -1.1023278 1.818962
2.6390154 -1.3761039 1.8345639
3.4222333 -1.7830031 1.8713205
3.0492628 -1.5886843 1.285814
3.1342571 -1.6322776 0.94302785
3.4652865 -1.804677 0.63714451
nan nan nan
nan nan nan
0.096097693 -0.052536048 0.69685948
0.12477408 -0.067797497 0.70617342
0.18306229 -0.097245887 0.70985591
0.64498335 -0.34140512 1.7787938
0.83052063 -0.43854949 1.7884545
1.0386188 -0.54754049 1.7970449
1.2722716 -0.66989225 1.7981219
nan nan nan
0.065104872 -0.038186021 0.66102141
0.15042426 -0.080465466 0.69435865
0.22018985 -0.11716359 0.73248625
0.73795539 -0.39163283 1.7912277
0.93260825 -0.49393216 1.7963778
1.1530224 -0.60992348 1.8020003
1.4128685 -0.74645388 1.8105719
1.5573794 -0.81690842 1.8079931
1.8953894 -0.99338239 1.8078673
2.3502238 -1.2312539 1.8241352
2.995506 -1.5686562 1.856558
3.1260622 -1.6370282 1.5140289
3.0390618 -1.5907981 1.0982133
3.4384418 -1.7990937 0.82824206
15.475737 -8.093956 1.660835
1.7144723 -0.90275395 1.8069026
2.1092429 -1.1096971 1.818962
2.6303806 -1.3833008 1.8320307
3.4159889 -1.7949381 1.8713205
3.0227978 -1.5883361 1.2775965
3.1113281 -1.6341677 0.93833858
3.423893 -1.7983406 0.6316191
nan nan nan
nan nan nan
0.096593037 -0.053248342 0.70179874
0.12364466 -0.067741632 0.70127815
0.18272172 -0.097884305 0.70985591
0.64378768 -0.34365445 1.7787938
0.82898474 -0.44144592 1.7884545
1.0367013 -0.55116266 1.7970449
1.2727563 -0.67583245 1.8019594
nan nan nan
0.064971179 -0.03841304 0.66102141
0.15014248 -0.080990061 0.69435865
0.21977954 -0.11793149 0.73248625
0.73658383 -0.39420637 1.7912277
0.93087846 -0.49718454 1.7963778
1.1508865 -0.61394459 1.8020003
1.4102542 -0.75138116 1.8105719
1.5545183 -0.82233971 1.8079931
1.8919103 -0.99999249 1.8078673
2.3459115 -1.2394502 1.8241352
2.9900122 -1.5791029 1.856558
3.0916331 -1.6327752 1.5009177
3.012279 -1.5901992 1.0911632
3.3452506 -1.7652345 0.80958962
15.39453 -8.1200466 1.65547
1.7113107 -0.90873313 1.8069026
2.1053562 -1.117053 1.818962
2.625536 -1.3924742 1.8320307
3.4056921 -1.8047259 1.8692224
2.9963722 -1.5878222 1.2693789
3.0841284 -1.6336423 0.93247694
3.426347 -1.8149171 0.63300043
nan nan nan
nan nan nan
0.09776257 -0.054344274 0.71167725
0.12340745 -0.06817282 0.70127815
0.18106599 -0.097811334 0.70508391
0.6425842 -0.34589958 1.7787938
0.82743877 -0.44433689 1.7884545
1.034771 -0.5547781 1.7970449
1.2703896 -0.68027109 1.8019594
nan nan nan
0.064836696 -0.038639601 0.66102141
0.14985885 -0.081513658 0.69435865
0.21936655 -0.11869794 0.73248625
0.73520333 -0.39677513 1.7912277
0.92913723 -0.50043088 1.7963778
1.1487362 -0.61795819 1.8020003
1.4076228 -0.7562992 1.8105719
1.5516384 -0.82776099 1.8079931
1.8884081 -1.0065904 1.8078673
2.3378806 -1.2456652 1.8213936
2.984482 -1.5895305 1.856558
3.0572727 -1.6283021 1.4878064
2.9897723 -1.5916872 1.085523
3.2219839 -1.7145935 0.78440887
15.308939 -8.1433315 1.6496581
1.7081282 -0.91470116 1.8069026
2.1014442 -1.1243954 1.818962
2.6206594 -1.4016304 1.8320307
3.3993716 -1.8166031 1.8692224
2.9699879 -1.5871438 1.2611614
3.0612578 -1.6352373 0.92778766
nan nan nan
nan nan nan
nan nan nan
0.096895613 -0.054303292 0.706738
0.12228016 -0.068105973 0.69638294
0.18072346 -0.098442778 0.70508391
0.64137286 -0.34814051 1.7787938
0.82588273 -0.4472225 1.7884545
1.0328282 -0.55838674 1.7970449
1.2708275 -0.68622446 1.805797
nan nan nan
0.064701423 -0.038865689 0.66102141
0.14957339 -0.082036272 0.69435865
0.21895088 -0.11946294 0.73248625
0.73381382 -0.39933905 1.7912277
0.92738473 -0.50367111 1.7963778
1.1465724 -0.62196428 1.8020003
1.4049742 -0.76120818 1.8105719
1.5487396 -0.83317226 1.8079931
1.8848829 -1.013176 1.8078673
2.333518 -1.2538182 1.8213936
2.9750128 -1.5978423 1.8542391
3.0229814 -1.6236089 1.4746952
2.9630659 -1.5907683 1.078473
3.2116513 -1.7235073 0.78347629
15.227757 -8.1684704 1.644293
1.7082101 -0.92243218 1.810228
2.0975065 -1.1317239 1.818962
2.6157508 -1.4107697 1.8320307
3.3930099 -1.828458 1.8692224
2.9436445 -1.5863003 1.2529439
3.0426934 -1.6389978 0.92427075
nan nan nan
nan nan nan
nan nan nan
0.090627499 -0.051182806 0.66228467
0.12204168 -0.068532392 0.69638294
0.18037875 -0.099073023 0.70508391
0.64015377 -0.3503772 1.7787938
0.82431656 -0.45010266 1.7884545
1.0308727 -0.56198853 1.7970449
1.2684243 -0.6906563 1.805797
nan nan nan
0.06501811 -0.039372675 0.66599292
0.14928612 -0.082557879 0.69435865
0.21853253 -0.1202265 0.73248625
0.73241538 -0.40189812 1.7912277
0.92562097 -0.50690526 1.7963778
1.1443943 -0.62596279 1.8020003
1.4023086 -0.7661078 1.8105719
1.5458218 -0.83857328 1.8079931
1.8813349 -1.0197493 1.8078673
2.3291273 -1.2619561 1.8213936
2.9694171 -1.6082174 1.8542391
2.9887605 -1.6186967 1.461584
2.9406209 -1.5919664 1.0728328
3.2704194 -1.7697759 0.79746562
15.146589 -8.1931429 1.6389281
1.7049798 -0.92838937 1.810228
2.0935433 -1.1390387 1.818962
2.6108103 -1.4198918 1.8320307
3.3866067 -1.8402907 1.8692224
2.9173439 -1.5852926 1.2447264
3.0198689 -1.6403288 0.91958147
3.3505833 -1.8199698 0.62402159
nan nan nan
nan nan nan
0.092470229 -0.052658699 0.67710245
0.12268678 -0.069461383 0.70127815
0.18003181 -0.09970206 0.70508391
0.6389268 -0.3526096 1.7787938
0.82274038 -0.4529773 1.7884545
1.0289048 -0.56558353 1.7970449
1.2660058 -0.69507968 1.805797
nan nan nan
0.064880282 -0.039599389 0.66599292
0.14899704 -0.083078481 0.69435865
0.21811153 -0.12098859 0.73248625
0.73100805 -0.40445229 1.7912277
0.92384589 -0.51013315 1.7963778
1.1422023 -0.62995356 1.8020003
1.3996259 -0.77099812 1.8105719
1.5428851 -0.84396404 1.8079931
1.8811792 -1.0281769 1.8110057
2.324708 -1.2700785 1.8213936
2.9637854 -1.6185728 1.8542391
2.9546111 -1.6135654 1.4484727
2.9182036 -1.5930272 1.0671926
3.3375266 -1.8211813 0.81332016
15.069805 -8.2197342 1.6340102
1.7017288 -0.93433511 1.810228
2.0895545 -1.1463397 1.818962
2.6058381 -1.4289967 1.8320307
3.380162 -1.852101 1.8692224
2.8910859 -1.5841206 1.2365088
3.0013354 -1.6438553 0.9160645
3.3224938 -1.8197602 0.62056822
nan nan nan
nan nan nan
nan nan nan
0.12244357 -0.069889218 0.70127815
0.17968269 -0.10032988 0.70508391
0.63769209 -0.35483775 1.7787938
0.82115424 -0.45584643 1.7884545
1.0269243 -0.56917167 1.7970449
1.2635719 -0.69949466 1.805797
nan nan nan
0.064741656 -0.039825622 0.66599292
0.14980133 -0.084214933 0.69919807
0.21768789 -0.12174921 0.73248625
0.72959185 -0.4070015 1.7912277
0.92433822 -0.51462364 1.8006437
1.1399963 -0.63393682 1.8020003
1.396926 -0.77587903 1.8105719
1.5399297 -0.84934455 1.8079931
1.8775787 -1.0347372 1.8110057
2.3202605 -1.2781856 1.8213936
2.954237 -1.6267717 1.8519204
2.9205339 -1.6082157 1.4353615
2.8958154 -1.5939512 1.0615525
3.4344404 -1.8896524 0.83570302
15.00175 -8.2506886 1.6299865
1.698457 -0.94026959 1.810228
2.0855403 -1.1536266 1.818962
2.6008341 -1.438084 1.8320307
3.3736765 -1.8638886 1.8692224
2.8648722 -1.5827849 1.2282913
2.9828141 -1.6472725 0.91254759
3.2510974 -1.7954367 0.61020797
nan nan nan
nan nan nan
nan nan nan
0.12219886 -0.070316195 0.70127815
0.18063171 -0.10168947 0.70985591
0.63644958 -0.35706154 1.7787938
0.81955802 -0.45871004 1.7884545
1.0249312 -0.57275277 1.7970449
1.2583237 -0.70233881 1.8019594
nan nan nan
0.065052018 -0.040337466 0.67096442
0.14950645 -0.084737323 0.69919807
0.21876441 -0.12335652 0.73717898
0.7281667 -0.40954578 1.7912277
0.92253619 -0.51784712 1.8006437
1.1377765 -0.63791233 1.8020003
1.3942093 -0.78075045 1.8105719
1.5369556 -0.85471475 1.8079931
1.8739554 -1.0412849 1.8110057
2.3121293 -1.2842467 1.8186522
2.9485407 -1.637074 1.8519204
2.890584 -1.6048982 1.4241233
2.8734562 -1.5947384 1.0559124
3.4278235 -1.9016291 0.83570302
14.933661 -8.2812672 1.6259627
1.6951644 -0.94619262 1.810228
2.0815008 -1.1608993 1.818962
2.5957983 -1.4471538 1.8320307
3.3671496 -1.8756535 1.8692224
2.8428285 -1.5835834 1.2217172
2.9643061 -1.6505804 0.90903062
3.2448103 -1.8067743 0.61020797
nan nan nan
nan nan nan
nan nan nan
0.12107293 -0.070229679 0.69638294
0.18027565 -0.10231937 0.70985591
0.63689971 -0.36024302 1.7833964
0.8179518 -0.46156803 1.7884545
1.0229256 -0.57632697 1.7970449
1.2558644 -0.70672691 1.8019594
nan nan nan
0.064910814 -0.040564295 0.67096442
0.14920975 -0.085258678 0.69919807
0.21533273 -0.12241254 0.72779346
0.72673261 -0.41208506 1.7912277
0.9207229 -0.52106416 1.8006437
1.1355429 -0.64187998 1.8020003
1.3914756 -0.7856124 1.8105719
1.5339627 -0.86007452 1.8079931
1.8669136 -1.0459175 1.8078673
2.3076324 -1.2923098 1.8186522
2.9428082 -1.6473563 1.8519204
2.864738 -1.6036559 1.4147581
2.8511269 -1.5953889 1.0502722
3.4297388 -1.9183789 0.83756822
14.861197 -8.3090429 1.621492
1.6885976 -0.95027298 1.8069026
2.0739129 -1.1661769 1.8160188
2.5907309 -1.456206 1.8320307
