# This PCD file was generated using the MATLAB® pcwrite function
# from Computer Vision Toolbox®.
# .PCD v.7 - Point Cloud Data file format
VERSION .7
FIELDS x y z
SIZE 4 4 4
TYPE F F F
COUNT 1 1 1
WIDTH 1668
HEIGHT 1
VIEWPOINT 0 0 0 1 0 0 0
POINTS 1668
DATA ascii
0.830409 -2.121189 0.881980
0.863835 -2.097880 0.878772
2.594970 -2.117205 0.898480
3.425848 -2.109262 0.855288
0.890918 -2.080683 0.876909
0.930559 -2.053308 0.873763
2.594040 -2.064151 0.890274
0.956588 -2.034665 0.871650
0.981905 -2.015007 0.869302
1.015737 -1.995190 0.868363
2.597922 -2.015925 0.883826
1.039957 -1.974117 0.865733
1.071978 -1.951528 0.864090
2.591836 -1.968009 0.875620
1.098063 -1.926662 0.860967
1.129904 -1.904478 0.859871
2.536825 -1.891571 0.853932
2.557412 -1.920848 0.862138
1.151064 -1.887202 0.858502
1.180103 -1.861004 0.856128
0.896864 -1.801946 0.901547
0.912557 -1.794056 0.901547
1.232038 -1.821044 0.854393
1.268159 -1.799041 0.855215
0.931289 -1.784390 0.901547
1.293144 -1.781145 0.855215
1.330559 -1.754184 0.855449
1.380612 -1.730628 0.859676
1.431494 -1.713196 0.866171
1.479414 -1.702987 0.874279
1.521418 -1.696789 0.882333
1.999911 -1.691838 0.859918
2.681760 -1.702559 0.856863
3.675300 -1.707540 0.860884
3.740762 -1.706304 0.872075
3.794439 -1.706872 0.881401
3.839252 -1.702889 0.888862
3.888617 -1.700503 0.897256
3.917067 -1.696681 0.901919
1.547788 -1.684557 0.885346
1.580140 -1.674845 0.890550
1.621197 -1.668230 0.898768
1.992596 -1.685606 0.857098
2.027824 -1.673363 0.862738
2.081890 -1.669613 0.874371
2.135256 -1.663989 0.885651
2.181206 -1.657385 0.895169
2.208078 -1.653644 0.900809
2.684818 -1.671807 0.853541
2.729748 -1.666870 0.862138
2.776726 -1.669061 0.872103
2.826784 -1.665719 0.882067
2.883399 -1.658643 0.893009
2.923100 -1.654475 0.900824
-8.354795 -1.396617 0.853410
-8.457772 -1.353205 0.861905
-8.438253 -1.380308 0.860563
-8.516566 -1.332139 0.866823
-0.356997 -0.170667 0.881982
0.087218 -0.148884 0.853030
0.210008 -0.152493 0.876875
0.781833 -0.134741 0.859429
1.073407 -0.134640 0.871264
-0.667003 0.096964 0.883645
-0.613544 0.084879 0.894935
-0.543081 0.083048 0.879530
-0.538896 0.095677 0.876578
-0.670452 0.134764 0.895577
-0.533542 0.134921 0.881214
-0.300220 0.157523 0.858289
-0.208183 0.156222 0.879261
0.670351 0.116203 0.891192
-0.665993 0.163173 0.897588
-0.518548 0.184645 0.881367
-0.466927 0.178332 0.887734
-0.410533 0.196264 0.901344
-0.357862 0.183383 0.895486
-0.298690 0.190862 0.895109
-0.264653 0.177286 0.880710
-0.211524 0.160468 0.895963
-0.508555 0.236068 0.896380
-0.403466 0.211210 0.901861
-0.376674 0.244633 0.890888
-0.327518 0.227179 0.887984
-0.499369 0.261003 0.900195
-0.486045 0.279426 0.896062
-0.374822 0.298178 0.853606
0.581507 0.303137 0.861771
0.627218 0.282326 0.900146
0.836963 0.303518 0.874100
-0.392232 0.309802 0.887734
0.638235 0.332996 0.858704
0.732951 0.353101 0.879288
0.804276 0.350246 0.862460
0.826514 0.329348 0.873684
-0.508940 0.360023 0.900255
-0.412066 0.371065 0.887107
-0.389632 0.367096 0.858865
0.705060 0.361149 0.858261
0.709496 0.360300 0.861766
-0.515920 0.427779 0.879040
-0.444952 0.432327 0.896265
-0.429281 0.425913 0.875517
-0.676545 0.464585 0.886297
-0.576504 0.464300 0.880755
-15.482475 11.294149 0.866738
-15.926041 11.448232 0.884876
-15.809100 11.448080 0.881047
-15.567758 11.439834 0.872985
-15.583948 11.535719 0.875807
-15.543587 11.590048 0.875807
-15.459093 11.611229 0.873590
-15.390578 11.644021 0.872179
15.568549 11.855769 0.883062
15.562746 11.937407 0.884876
15.303198 11.994933 0.878024
15.552608 12.016093 0.886488
15.308290 12.085427 0.880442
15.510571 12.070309 0.886488
14.793512 12.190502 0.866940
15.346348 12.198298 0.884473
14.963573 12.243189 0.873590
15.271070 12.212577 0.882457
14.854671 12.328212 0.872381
15.307498 12.382508 0.887899
15.222826 12.415440 0.886085
13.259000 13.677457 0.862103
13.365990 13.691864 0.865529
13.214640 13.727254 0.862304
13.183905 13.791356 0.863312
13.854506 -15.831444 0.942312
13.929502 -15.805474 0.943521
14.014437 -15.790385 0.945335
14.092773 -15.767443 0.946746
13.189220 -15.723868 0.921554
13.256924 -15.693001 0.922361
13.356944 -15.699902 0.925182
13.547816 -15.700830 0.930220
12.974058 -15.688512 0.914904
13.434419 -15.679738 0.926593
13.632032 -15.687385 0.932034
13.022349 -15.635454 0.914501
-0.966378 -9.497356 0.949979
-0.917827 -9.514666 0.951097
-0.868680 -9.526793 0.951768
-0.835855 -9.534728 0.952215
-1.194381 -9.441268 0.947297
-1.162025 -9.450322 0.947744
-1.112813 -9.458736 0.947967
-1.064111 -9.471869 0.948638
-1.015292 -9.484725 0.949309
-1.456005 -9.394395 0.946403
-1.423204 -9.399420 0.946403
-1.373967 -9.406729 0.946403
-1.324697 -9.413808 0.946403
-1.276055 -9.425536 0.946850
-1.227330 -9.437041 0.947297
-1.667005 -9.349126 0.945508
-1.619738 -9.367554 0.946403
-1.571488 -9.380803 0.946850
-1.522352 -9.388917 0.946850
-1.488789 -9.389255 0.946403
-1.759263 -9.301798 0.942826
-1.713245 -9.325588 0.944167
-1.916789 -9.247733 0.940814
-1.869827 -9.264978 0.941485
-1.821763 -9.277071 0.941708
-2.076253 -9.205585 0.940144
-2.012463 -9.222289 0.940367
-1.964673 -9.235148 0.940591
-2.249032 -9.149535 0.938802
-2.218252 -9.162169 0.939249
-2.170815 -9.176069 0.939473
-2.123307 -9.189749 0.939696
-2.404552 -9.094446 0.937461
-2.372791 -9.102785 0.937461
-2.326936 -9.122310 0.938132
-2.279750 -9.136797 0.938355
-2.562905 -9.051096 0.937461
-2.516137 -9.066778 0.937685
-2.469290 -9.082243 0.937908
-2.436282 -9.085998 0.937461
-2.716158 -8.990687 0.936120
-2.669042 -9.004772 0.936120
-2.608181 -9.030365 0.936790
-2.908468 -8.946041 0.937461
-2.860829 -8.958759 0.937238
-2.813138 -8.971255 0.937014
-2.764657 -8.981089 0.936567
-3.054840 -8.897121 0.937461
-3.001989 -8.915093 0.937461
-2.970852 -8.925518 0.937461
-2.939678 -8.935834 0.937461
-3.258340 -8.851151 0.939696
-3.210260 -8.863420 0.939249
-3.161300 -8.873056 0.938579
-3.112328 -8.882453 0.937908
-3.079673 -8.888556 0.937461
-3.395178 -8.794247 0.939249
-3.364459 -8.806045 0.939249
-3.320053 -8.828187 0.939696
-3.517633 -8.745985 0.939249
-3.471786 -8.764270 0.939249
-3.425854 -8.782341 0.939249
-3.659400 -8.701115 0.940367
-3.610933 -8.713270 0.939696
-3.563374 -8.727434 0.939249
-3.816730 -8.649592 0.941708
-3.770397 -8.667189 0.941485
-3.722019 -8.679932 0.940814
-3.975463 -8.599746 0.943497
-3.912238 -8.620489 0.942826
-3.865020 -8.636323 0.942379
-4.149618 -8.542013 0.945508
-4.117615 -8.551960 0.945061
-4.069574 -8.566641 0.944391
-4.021496 -8.581082 0.943720
-4.272956 -8.492141 0.946403
-4.226212 -8.509924 0.945956
-4.179410 -8.527477 0.945508
-4.398009 -8.444903 0.947744
-4.366219 -8.455779 0.947297
-4.320751 -8.476292 0.947073
-4.522574 -8.395827 0.949085
-4.476207 -8.414984 0.948638
-4.429776 -8.433909 0.948191
-4.666045 -8.345472 0.951321
-4.615061 -8.356727 0.949979
-4.567662 -8.374204 0.949309
-4.714582 -8.329610 0.952215
2.895543 -3.173217 0.907048
2.937366 -3.174815 0.912644
2.983541 -3.178787 0.919173
3.039607 -3.171860 0.925545
3.060540 -3.149410 0.925235
8.714820 -2.941327 0.918684
8.763140 -2.984920 0.924049
0.449775 -2.882063 0.947340
0.475766 -2.852340 0.939937
8.732121 -2.889561 0.918684
8.780020 -2.871446 0.922260
0.498385 -2.835104 0.936060
0.519575 -2.811764 0.930419
0.546474 -2.767563 0.919139
0.561958 -2.744889 0.913499
0.581103 -2.718809 0.907154
8.933521 -2.715912 0.931202
8.928518 -2.663401 0.929414
8.937575 -2.615221 0.928967
8.946348 -2.567002 0.928519
8.887768 -2.499910 0.921813
8.982816 -2.492841 0.929861
0.373514 -2.446623 0.950538
9.053904 -2.478564 0.935673
0.396068 -2.423936 0.943964
0.414406 -2.404105 0.938212
0.439494 -2.376092 0.930159
0.468413 -2.348434 0.922599
0.493169 -2.327670 0.917257
0.536413 -2.308768 0.914107
0.567678 -2.297266 0.912738
2.591285 -2.301444 0.926615
0.590218 -2.285468 0.910683
0.630823 -2.262476 0.906633
0.659354 -2.243138 0.902876
2.604248 -2.264637 0.923098
2.600487 -2.221838 0.915674
2.593784 -2.169536 0.906295
0.497298 -2.077743 0.951495
0.530691 -2.058024 0.947035
0.556630 -2.040232 0.942754
0.582818 -2.024584 0.939543
0.625226 -1.999998 0.934950
0.650468 -1.983025 0.931516
0.681115 -1.960377 0.926833
0.733187 -1.924130 0.920277
0.769321 -1.898384 0.915907
8.939556 -1.918104 0.913766
0.793094 -1.881181 0.913160
0.820179 -1.854334 0.907541
2.871175 -1.843960 0.913720
8.944589 -1.870248 0.913319
0.846893 -1.836173 0.905293
0.874814 -1.820968 0.904544
8.924993 -1.817430 0.910636
0.952117 -1.778638 0.903420
0.982983 -1.761697 0.903420
1.013610 -1.744326 0.903420
1.036269 -1.734177 0.904544
1.081265 -1.719594 0.909039
1.132883 -1.701192 0.914123
3.950052 -1.694618 0.907515
3.987591 -1.694267 0.914043
4.020647 -1.691768 0.919639
4.081638 -1.692299 0.930364
4.180493 -1.690718 0.947617
1.183638 -1.686545 0.920813
1.232258 -1.673766 0.928082
1.280705 -1.665350 0.937135
1.333111 -1.654417 0.946768
1.364537 -1.645905 0.952119
1.651881 -1.664591 0.905342
1.684558 -1.656493 0.911423
1.730197 -1.648739 0.920955
1.762897 -1.645056 0.928351
2.236301 -1.650504 0.906919
2.286154 -1.644519 0.917729
2.945811 -1.653780 0.905514
2.982819 -1.647236 0.912548
4.138186 -1.690440 0.940156
1.787051 -1.638638 0.933007
1.831855 -1.633178 0.943307
1.868052 -1.630737 0.952182
2.333567 -1.635763 0.927599
2.378266 -1.630223 0.937470
2.424432 -1.624809 0.947810
3.031281 -1.639663 0.921926
3.072693 -1.634440 0.930132
3.122793 -1.633223 0.940683
3.168700 -1.629162 0.950062
9.239401 -1.415475 0.932096
9.426516 -1.410481 0.948638
-8.993571 -1.342497 0.909295
-8.914989 -1.362596 0.902589
-9.372505 -1.332239 0.942826
-9.126329 -1.329764 0.920919
-20.869585 -0.871050 0.936266
-20.857521 -0.797623 0.935662
-20.730360 -0.720302 0.930422
-20.742735 -0.648247 0.930825
-20.769840 -0.576530 0.931832
-20.771727 -0.504027 0.931832
-20.738396 -0.430790 0.930422
-20.724791 -0.358138 0.929817
-20.775866 -0.286482 0.931832
-20.801720 -0.214216 0.932840
-20.862291 -0.142011 0.935259
-20.772734 -0.068889 0.931631
-20.652945 0.003601 0.926794
-20.737736 0.076004 0.930220
-0.624502 0.099772 0.912225
-20.747335 0.148463 0.930623
-0.614240 0.133640 0.907368
-0.699647 0.194913 0.946196
-0.680896 0.178261 0.919333
-0.605541 0.183734 0.912919
-0.477277 0.197769 0.915320
-0.423187 0.183387 0.912520
-0.355313 0.199795 0.907061
-0.313921 0.183760 0.916833
-0.261767 0.176586 0.912944
-0.214834 0.165964 0.915051
-20.761677 0.221044 0.931228
-0.608863 0.223786 0.933771
-0.456083 0.233456 0.908651
-0.398678 0.232363 0.913321
-0.361036 0.227840 0.921573
-0.341277 0.231494 0.916492
-20.765778 0.293585 0.931429
-0.501059 0.272006 0.910011
-0.473432 0.286340 0.915247
-0.431486 0.285678 0.916853
-0.386544 0.261019 0.922050
0.642849 0.283993 0.918054
-0.471515 0.332565 0.920432
-0.427241 0.321997 0.945324
0.645102 0.340605 0.950033
0.698189 0.333922 0.917507
0.719027 0.332519 0.937108
0.797196 0.335562 0.929854
-20.724665 0.365365 0.929817
-0.544895 0.376963 0.952125
-0.515389 0.386509 0.927975
-0.453908 0.370128 0.932883
-0.434984 0.372743 0.913971
0.683811 0.362867 0.917507
0.715960 0.367207 0.950583
0.793702 0.368785 0.939867
1.799485 0.401587 0.939785
-20.798185 0.439287 0.932840
-0.565779 0.438201 0.933503
-0.507487 0.423890 0.938112
-0.470009 0.447122 0.933771
1.802994 0.432243 0.944581
-0.692897 0.472264 0.903820
-0.617597 0.479691 0.926082
1.799660 0.471452 0.947478
1.808774 0.460392 0.950275
-20.801517 0.512007 0.933042
1.743840 0.532490 0.930344
1.784698 0.514465 0.946079
-20.844549 0.585878 0.934855
-20.842377 0.658635 0.934855
-20.849937 0.731735 0.935259
-20.827288 0.803740 0.934452
-20.794407 0.875176 0.933243
-20.746309 0.945709 0.931429
-20.702961 1.016162 0.929817
-20.784100 1.092882 0.933243
-20.800112 1.166544 0.934049
-20.830822 1.241223 0.935460
-20.821379 1.313614 0.935259
-20.856544 1.388942 0.936871
-20.896421 1.464881 0.938685
-20.960936 1.542949 0.941506
-21.040102 1.622638 0.944932
-21.059208 1.698079 0.945940
-20.998859 1.700591 0.943521
-21.055008 1.808748 0.946141
-17.607096 11.394896 0.939692
-17.567213 11.456286 0.939692
-17.456141 11.470896 0.936266
-17.495136 11.584164 0.940095
-17.446283 11.639619 0.939692
-16.580412 11.743927 0.913292
-17.529932 11.784061 0.945738
-16.592186 11.839456 0.915912
-17.600376 11.920826 0.951180
-17.558659 11.982190 0.951180
-17.426155 11.981138 0.946746
-17.361038 12.206065 0.949769
17.025892 12.686093 0.950172
14.653028 -15.940626 0.967100
14.709201 -15.895616 0.967302
14.844457 -15.913157 0.971534
14.258021 -15.840691 0.953396
15.684066 -15.854706 0.993299
14.336717 -15.816738 0.954807
15.225648 -15.827313 0.979595
15.298184 -15.792010 0.980603
15.422985 -15.810036 0.984634
15.523594 -15.802436 0.987253
16.039286 -15.767262 1.000958
16.301151 -15.474618 1.000353
1.823159 -9.943373 1.000499
1.877975 -9.948355 1.001840
1.247811 -9.891297 0.987981
1.283611 -9.896759 0.988875
1.337747 -9.907160 0.990440
1.390638 -9.907432 0.991111
1.426632 -9.912376 0.992005
1.479990 -9.914604 0.992899
1.533398 -9.916579 0.993793
1.587269 -9.920692 0.994911
1.640408 -9.919631 0.995581
1.675025 -9.913844 0.995581
1.730337 -9.924545 0.997370
1.785796 -9.934971 0.999158
0.998739 -9.849467 0.981722
1.034673 -9.860779 0.983063
1.087656 -9.867586 0.984181
1.140733 -9.874140 0.985299
1.175782 -9.875042 0.985746
1.212064 -9.885706 0.987087
0.528694 -9.793570 0.973451
0.580698 -9.803110 0.974569
0.632823 -9.812345 0.975686
0.685055 -9.821332 0.976804
0.737032 -9.825045 0.977475
0.789060 -9.828512 0.978145
0.823363 -9.825697 0.978145
0.874797 -9.821238 0.978145
0.925742 -9.811578 0.977698
0.962896 -9.838024 0.980381
0.202399 -9.743493 0.967862
0.236771 -9.757663 0.969204
0.288230 -9.768719 0.970321
0.339457 -9.769580 0.970545
0.373747 -9.773311 0.970992
0.425243 -9.778667 0.971663
0.476798 -9.783783 0.972333
0.083083 -9.712854 0.964956
0.133960 -9.714791 0.965180
0.168128 -9.729202 0.966521
-0.271012 -9.642188 0.958921
-0.220855 -9.658396 0.960262
-0.170377 -9.664412 0.960709
-0.605473 -9.597034 0.956238
-0.572266 -9.604060 0.956685
-0.522241 -9.611883 0.957133
-0.471907 -9.614501 0.957133
-0.421558 -9.616825 0.957133
-0.371008 -9.613939 0.956685
-0.320821 -9.620712 0.957133
-0.802985 -9.542550 0.952662
-0.770471 -9.555223 0.953556
-0.721168 -9.569044 0.954450
-0.671761 -9.582639 0.955344
-0.638638 -9.589894 0.955791
-4.761842 -8.311277 0.952885
-4.900707 -8.250458 0.954450
-4.869349 -8.263223 0.954003
-4.822254 -8.282135 0.953332
-5.010217 -8.204830 0.956015
-4.963333 -8.224570 0.955344
-4.932035 -8.237573 0.954897
-5.068684 -8.171770 0.956238
-5.293588 -8.117255 0.962945
-5.262515 -8.131503 0.962498
-5.217952 -8.124681 0.959815
-5.178854 -8.126048 0.958027
-5.121632 -8.129864 0.955568
-5.325033 -8.072791 0.961156
-5.420483 -8.003016 0.960709
-5.375726 -8.027138 0.960262
-5.543095 -7.942890 0.962498
-5.512499 -7.958097 0.962050
-5.466529 -7.980674 0.961380
-5.616521 -7.900290 0.963168
-5.570787 -7.923493 0.962498
-5.725832 -7.849202 0.965180
-5.677365 -7.868963 0.964062
-5.855801 -7.796365 0.968310
-5.825573 -7.812766 0.967862
-5.772761 -7.827113 0.966074
-5.952283 -7.754369 0.970545
-5.922161 -7.771138 0.970098
-5.888988 -7.783820 0.969204
-6.022782 -7.706042 0.970992
-5.979315 -7.733544 0.970545
-6.076433 -7.663808 0.970992
-6.358048 -7.601449 0.982616
-6.318748 -7.608272 0.980828
-6.276310 -7.611071 0.978592
-6.217488 -7.620655 0.975910
-6.158730 -7.629878 0.973227
-6.122716 -7.639670 0.971886
-6.410960 -7.556876 0.982616
-6.381334 -7.575399 0.982169
-6.463561 -7.511935 0.982616
-6.437300 -7.534451 0.982616
-6.512571 -7.462875 0.982169
-6.486482 -7.485563 0.982169
-6.593678 -7.397986 0.982616
-6.564513 -7.417228 0.982169
-6.538582 -7.440097 0.982169
-6.669689 -7.353061 0.984181
-6.622788 -7.378631 0.983063
-6.763244 -7.301081 0.986416
-6.716518 -7.327229 0.985299
-6.861577 -7.253369 0.989322
-6.809895 -7.274672 0.987534
-6.961376 -7.206191 0.992452
-6.913230 -7.231759 0.991111
-7.023709 -7.169869 0.994017
-7.075344 -7.122430 0.994240
-7.121355 -7.069360 0.993793
-7.161641 -7.010759 0.992675
-7.189323 -6.964510 0.991558
-7.225679 -6.926761 0.991558
-7.313412 -6.841380 0.992005
-7.275673 -6.877855 0.991781
-7.368316 -6.796910 0.992899
-7.340897 -6.819200 0.992452
-7.409312 -6.763259 0.993569
-7.463750 -6.718031 0.994464
-7.517918 -6.672373 0.995358
-7.612058 -6.591451 0.996923
-7.568064 -6.623005 0.995805
-7.661677 -6.541382 0.997370
-7.635020 -6.564839 0.996923
-7.714777 -6.494149 0.998264
-7.688262 -6.517818 0.997817
-7.763759 -6.443312 0.998711
-7.741220 -6.470373 0.998711
-7.816260 -6.395261 0.999605
-7.790046 -6.419339 0.999158
-7.864593 -6.343665 1.000052
-7.838537 -6.367938 0.999605
-7.916484 -6.294804 1.000946
-7.890576 -6.319286 1.000499
-7.968075 -6.245528 1.001840
-7.942317 -6.270218 1.001393
2.086990 -3.118671 0.995782
2.108732 -3.127488 1.000471
3.401478 -3.119072 0.967669
3.423233 -3.106166 0.969068
0.346547 -3.055663 0.993871
3.401210 -3.064604 0.960674
3.411887 -3.052712 0.960674
0.379832 -3.019764 0.984565
3.427300 -3.013072 0.957876
0.406047 -2.975724 0.972720
0.414436 -2.960037 0.968490
0.429930 -2.922261 0.958150
0.230872 -2.596959 0.996556
0.245510 -2.559238 0.983956
2.646962 -2.583953 0.982887
9.585903 -2.552401 0.983510
9.724807 -2.553067 0.995581
0.280825 -2.512017 0.968891
9.403854 -2.539113 0.967415
9.675806 -2.504133 0.990216
0.329238 -2.474377 0.957934
0.357797 -2.458525 0.953825
9.670012 -2.466650 0.988875
9.657991 -2.391898 0.986193
9.707541 -2.440164 0.991558
9.646931 -2.353449 0.984404
0.273694 -2.241870 1.000818
0.291564 -2.226742 0.995667
0.319468 -2.200661 0.986770
0.343813 -2.180573 0.980215
0.382723 -2.157542 0.973659
0.433437 -2.119224 0.962287
0.465259 -2.098607 0.956802
9.635760 -2.137959 0.979039
0.480541 -2.088031 0.953992
3.166687 -2.049396 1.000471
0.359320 -1.942416 1.000629
0.385662 -1.916466 0.991187
0.409158 -1.890760 0.981746
0.437808 -1.869638 0.975152
0.470740 -1.849445 0.969682
0.495046 -1.837213 0.967060
0.531319 -1.819323 0.963650
0.580008 -1.797835 0.960766
0.606734 -1.784263 0.958668
0.633886 -1.772324 0.957619
0.682316 -1.751814 0.956570
0.729199 -1.727898 0.954471
0.782019 -1.709618 0.956570
0.826769 -1.696573 0.959926
4.236534 -1.696200 0.957876
0.849272 -1.690016 0.961815
0.880370 -1.685323 0.966460
0.932255 -1.676206 0.974141
0.984196 -1.665401 0.981746
1.035915 -1.659011 0.991637
1.078096 -1.648702 0.998111
1.386327 -1.642766 0.956802
4.242429 -1.681401 0.957876
1.430048 -1.635738 0.966167
1.482702 -1.631670 0.979091
1.533229 -1.626584 0.991453
1.568996 -1.621314 0.999881
1.891324 -1.627906 0.957660
1.931572 -1.621860 0.966973
1.980548 -1.616385 0.978889
2.031600 -1.611312 0.991626
2.067925 -1.610979 1.001487
2.454394 -1.620207 0.954390
2.480924 -1.619118 0.960735
2.531118 -1.614284 0.972368
2.585536 -1.611202 0.985411
2.633614 -1.609400 0.997161
3.203190 -1.625765 0.957096
3.237736 -1.622017 0.964130
3.286050 -1.617617 0.974094
3.338834 -1.614738 0.985231
3.382331 -1.614005 0.994610
3.414309 -1.614657 1.001644
9.584141 -1.399881 0.962498
9.756594 -1.390304 0.977698
9.924164 -1.378854 0.992452
-9.677689 -1.306758 0.969651
-9.520151 -1.319340 0.955791
-0.707828 0.205207 0.958988
-0.725075 0.218473 0.983292
-0.627345 0.248114 0.968085
0.536880 0.290348 0.969077
0.677012 0.339997 0.983803
0.742394 0.346510 0.966509
0.763364 0.335939 0.982435
-0.564952 0.385011 0.980055
0.741403 0.376753 0.979985
0.763122 0.371418 0.998361
-0.609946 0.429621 0.969919
-0.590002 0.434456 0.953871
-0.498275 0.448288 0.962322
-0.489180 0.455782 0.960105
-0.765913 0.502484 0.980044
-0.701557 0.477617 0.998361
-0.672796 0.484123 0.976922
-0.771411 0.512082 0.989682
1.819199 0.572935 0.969158
-21.299824 2.092215 0.957024
-21.257601 2.163013 0.955613
-21.284698 2.240864 0.957024
-21.354471 2.293440 0.960047
-21.275938 2.322575 0.957024
-21.388428 2.440681 0.962062
-21.439320 2.522331 0.964481
-21.470058 2.601961 0.966093
-21.535210 2.686165 0.969116
-21.476149 2.754964 0.967100
-21.525839 2.837749 0.969519
-21.535604 2.915551 0.970325
-21.545090 2.993457 0.971131
-21.781807 3.103884 0.981208
-21.622536 3.158237 0.975162
-21.347980 7.064299 1.000756
-18.632399 11.512090 0.977177
-18.592098 11.577060 0.977177
-18.445780 11.575499 0.972139
-18.422153 11.650497 0.972945
18.758799 11.762817 0.986850
18.700731 11.817549 0.986044
18.111612 11.892587 0.967705
18.011658 11.917142 0.964884
18.709932 11.914959 0.988463
17.965790 11.977169 0.964682
17.919725 12.037024 0.964481
17.877600 12.099501 0.964481
18.828005 12.082730 0.996121
18.726980 12.110398 0.993299
-17.564928 12.167065 0.955613
-17.653452 12.319795 0.962062
17.366432 12.474458 0.956218
18.155060 12.472967 0.982215
17.314686 12.529143 0.955815
17.609188 12.555882 0.966093
17.738544 12.554949 0.970325
18.140163 12.556169 0.983626
17.323328 12.627763 0.958435
18.007097 12.650911 0.981409
18.083931 12.610840 0.983021
17.295250 12.699985 0.959241
17.431559 12.893973 0.968310
17.476971 13.117318 0.975162
17.486872 13.220426 0.977983
16.231422 14.254641 0.965085
16.162855 14.294664 0.964077
17.004147 14.313757 0.990276
17.030294 14.437638 0.994307
16.243433 14.467293 0.971131
16.960796 14.480778 0.993299
16.200274 14.530578 0.971534
16.290335 14.714292 0.979192
16.327572 14.851746 0.984029
16.386150 15.009887 0.990075
16.374048 15.104254 0.992292
16.339527 15.178320 0.993299
16.051611 -15.889934 1.004787
17.643108 -15.614789 1.044085
17.787571 -15.632260 1.048922
17.439312 -15.543316 1.036024
17.808153 -15.540512 1.047108
16.424139 -15.482734 1.004182
16.507261 -15.452623 1.005794
16.623304 -15.452732 1.009220
16.739552 -15.452220 1.012646
16.863361 -15.457834 1.016475
16.980024 -15.456047 1.019902
17.100586 -15.456983 1.023529
17.243666 -15.477286 1.028366
2.187737 -9.991954 1.011229
2.251368 -9.998229 1.013017
2.288476 -10.000018 1.013912
2.326752 -10.006521 1.015253
2.381425 -10.003872 1.016147
2.437304 -10.005799 1.017488
2.473411 -10.002065 1.017935
2.529415 -10.003443 1.019277
2.586737 -10.009367 1.021065
2.624187 -10.009911 1.021959
2.680430 -10.010447 1.023300
2.738057 -10.015507 1.025089
2.775661 -10.015487 1.025983
2.832814 -10.017569 1.027548
2.890050 -10.019366 1.029112
2.927800 -10.018777 1.030007
2.985203 -10.019995 1.031571
3.042682 -10.020924 1.033136
3.082033 -10.024522 1.034477
3.121447 -10.027968 1.035818
3.178429 -10.025710 1.037160
3.236995 -10.027905 1.038948
3.275072 -10.026012 1.039842
3.331450 -10.020524 1.040960
3.389458 -10.019470 1.042525
3.467467 -10.019094 1.044760
3.528157 -10.024268 1.046995
3.588974 -10.029122 1.049231
3.627349 -10.025899 1.050125
3.684953 -10.020773 1.051466
1.932881 -9.953068 1.003182
1.987898 -9.957445 1.004523
2.043004 -9.961552 1.005864
2.079799 -9.964109 1.006758
2.137688 -9.979847 1.009217
3.417963 -9.988732 1.040736
-8.010497 -6.211338 1.002958
-8.065535 -6.164335 1.004299
-8.116328 -6.113870 1.005193
-8.166810 -6.062996 1.006088
-8.216977 -6.011714 1.006982
-8.266826 -5.960028 1.007876
-8.320412 -5.910822 1.009217
-8.371675 -5.859727 1.010335
-8.422626 -5.808210 1.011453
-8.471209 -5.754865 1.012347
-8.507437 -5.714608 1.013017
-8.555431 -5.660573 1.013912
-8.531476 -5.687640 1.013465
-8.603085 -5.606145 1.014806
-8.579301 -5.633408 1.014359
-8.650395 -5.551327 1.015700
-8.626783 -5.578784 1.015253
-8.701570 -5.498782 1.017041
-8.678122 -5.526448 1.016594
-8.748202 -5.443162 1.017935
-8.724930 -5.471020 1.017488
-8.771387 -5.415208 1.018382
-8.813234 -5.356427 1.018829
-8.790236 -5.384557 1.018382
-8.850413 -5.294770 1.018829
-8.831878 -5.325631 1.018829
-8.868842 -5.263844 1.018829
-9.040776 -5.196581 1.029112
-8.972548 -5.220029 1.024865
-8.887162 -5.232853 1.018829
-9.256060 -5.149744 1.043866
-9.190250 -5.155223 1.038948
-9.141856 -5.170110 1.035818
-9.089143 -5.182257 1.032242
-9.313440 -5.117974 1.046995
-9.392836 -5.055410 1.050572
-9.362001 -5.081040 1.049231
-9.427999 -5.031972 1.052360
2.202073 -3.193265 1.026262
2.235461 -3.193743 1.030952
2.116427 -3.186672 1.013367
2.167517 -3.178646 1.018642
2.231288 -3.187736 1.029193
2.328913 -3.171585 1.039744
2.364327 -3.184718 1.047364
2.383010 -3.106675 1.035055
2.421480 -3.100447 1.039549
2.450463 -3.081745 1.040330
2.484150 -3.079675 1.045019
2.518647 -3.089255 1.052053
2.582829 -3.014474 1.048146
2.579735 -2.958268 1.037399
0.197960 -2.708582 1.034357
0.214016 -2.671833 1.022031
0.224215 -2.625979 1.006418
0.188136 -2.359187 1.044522
6.454805 -2.376189 1.051553
0.202101 -2.328571 1.032659
0.220283 -2.304784 1.023763
6.454931 -2.325190 1.049135
0.245499 -2.274657 1.012681
0.263292 -2.254781 1.005501
6.455359 -2.287225 1.047408
6.458631 -2.263041 1.046718
6.457132 -2.237239 1.045336
6.462527 -2.206314 1.044646
3.302012 -2.153366 1.041503
6.474586 -2.155058 1.043955
6.481065 -2.119585 1.043264
0.251914 -2.057582 1.045737
6.490986 -2.072781 1.042574
0.274531 -2.009619 1.025106
6.502934 -2.026682 1.042228
6.511099 -1.991880 1.041883
0.299795 -1.986917 1.016364
0.331803 -1.966229 1.009283
6.521430 -1.957758 1.041883
6.534938 -1.912183 1.041883
6.552891 -1.867871 1.042574
6.565771 -1.822078 1.042574
0.402936 -1.779248 1.041500
0.432687 -1.753676 1.032096
0.468846 -1.742387 1.031065
6.581405 -1.764708 1.042574
0.492388 -1.733102 1.029674
0.531395 -1.720810 1.029326
0.583269 -1.707421 1.031065
0.618921 -1.694894 1.031065
6.598383 -1.719975 1.043264
6.613939 -1.699396 1.044646
0.643475 -1.688554 1.032457
0.684575 -1.680767 1.036572
0.735031 -1.669612 1.041500
0.782404 -1.658111 1.046303
0.823645 -1.647587 1.050775
1.103722 -1.643724 1.002727
1.131463 -1.641291 1.009021
6.637146 -1.668353 1.046718
0.847590 -1.637925 1.051934
1.156421 -1.640520 1.015315
1.181704 -1.633575 1.019511
1.230715 -1.628376 1.031050
1.281890 -1.624210 1.043988
1.593390 -1.618008 1.005813
1.632768 -1.612288 1.015428
1.682009 -1.609533 1.028913
1.729765 -1.609584 1.042961
1.759133 -1.608541 1.051390
2.087554 -1.608768 1.006418
2.132576 -1.608100 1.018744
2.183129 -1.604791 1.032166
2.229207 -1.602978 1.044766
2.258317 -1.600146 1.052436
2.681156 -1.606519 1.008676
2.731616 -1.604496 1.021132
2.781540 -1.601364 1.033352
2.831622 -1.597434 1.045572
3.446332 -1.615105 1.008678
3.490043 -1.613329 1.018056
3.533818 -1.611190 1.027435
3.584327 -1.611571 1.038572
3.639366 -1.613497 1.050881
6.675504 -1.616179 1.050171
6.701110 -1.572960 1.052243
-10.555966 -1.350381 1.048337
-10.156189 -1.335288 1.012570
-0.760960 0.246840 1.034459
-0.739873 0.228559 1.003759
-0.681019 0.276203 1.047886
0.720895 0.350566 1.036377
-0.601525 0.400835 1.031926
0.732062 0.377737 1.031272
0.771223 0.383733 1.012142
-0.663947 0.440536 1.030621
-0.642234 0.432651 1.003759
0.681822 0.436599 1.045971
0.759366 0.434148 1.026631
-0.752452 0.478382 1.044913
-0.725032 0.477060 1.019186
0.762412 0.464520 1.046138
-0.803652 0.521452 1.021222
-0.787494 0.516850 1.005452
-22.397970 3.993715 1.011437
-22.383892 4.071874 1.011437
-22.516905 4.177322 1.017483
-22.541458 4.263323 1.019095
-22.546062 4.345764 1.019902
-22.766066 4.470647 1.029575
-22.811182 6.244708 1.047713
-22.630384 6.280210 1.041062
-22.521757 6.334817 1.037435
-22.273691 6.349027 1.027963
-22.040205 6.365742 1.019095
-21.806875 6.380904 1.010228
-21.707829 6.434269 1.007004
-21.642174 6.497077 1.005190
-21.667162 6.587114 1.007205
-21.820704 6.717090 1.014662
-21.897287 6.824433 1.018894
-21.768515 6.867759 1.014460
-21.687298 6.925466 1.012042
-21.615454 6.985764 1.010026
-21.462729 7.019243 1.004585
-21.740091 7.278347 1.018491
-21.638842 7.328548 1.015266
-21.403048 7.415648 1.007407
-21.329884 7.473794 1.005391
-21.303665 7.548203 1.005391
20.380056 11.999986 1.047713
19.737247 12.090268 1.027358
19.898869 12.093951 1.033001
20.338043 12.071054 1.047713
19.707676 12.166964 1.027963
16.505901 15.548946 1.008414
16.458776 15.613343 1.008817
18.896132 -15.805220 1.087414
19.051111 -15.822151 1.092654
19.164043 -15.803232 1.095677
19.280937 -15.786880 1.098902
18.638336 -15.700494 1.076733
18.173727 -15.637386 1.060812
18.266184 -15.606305 1.062828
17.986887 -15.586222 1.053759
18.339598 -15.558611 1.063835
4.184542 -10.057690 1.070914
4.240070 -10.042534 1.071585
4.490108 -10.042459 1.080526
4.533330 -10.044881 1.082315
4.576623 -10.047123 1.084103
4.619987 -10.049185 1.085891
4.684116 -10.049663 1.088350
4.750496 -10.054287 1.091256
4.791993 -10.051129 1.092598
4.840001 -10.061267 1.095280
4.888139 -10.071192 1.097962
4.934215 -10.076430 1.100198
3.744342 -10.020019 1.053254
3.782814 -10.016205 1.054149
3.821306 -10.012245 1.055043
3.879079 -10.006011 1.056384
3.936888 -9.999483 1.057725
3.977291 -9.999562 1.059067
4.021455 -10.008722 1.061302
4.069477 -10.026925 1.064432
4.112008 -10.031090 1.066220
4.279006 -10.036834 1.072479
4.319921 -10.035559 1.073820
4.382381 -10.035599 1.076056
4.446959 -10.039858 1.078738
-9.458710 -5.006020 1.053702
-9.515682 -4.972548 1.056831
-9.598622 -4.909753 1.060855
-9.572575 -4.938662 1.059961
-9.611259 -4.873965 1.060408
-9.645052 -4.806748 1.060408
-9.628215 -4.840385 1.060408
-9.676779 -4.759466 1.061078
-9.708300 -4.712006 1.061749
-9.749949 -4.648402 1.062643
-9.729177 -4.680248 1.062196
-9.770618 -4.616467 1.063090
-9.808186 -4.571542 1.064431
-9.867035 -4.515383 1.067114
-9.951533 -4.449455 1.071585
-9.917785 -4.475972 1.069797
-10.023396 -4.397881 1.075608
-9.985218 -4.422758 1.073373
-10.104172 -4.349457 1.080526
-10.061523 -4.372791 1.077844
-10.168060 -4.313967 1.084550
-10.269742 -4.251770 1.090809
-10.227271 -4.276067 1.088127
-10.359163 -4.204317 1.096621
-10.307561 -4.225341 1.093045
-10.401501 -4.179271 1.099304
2.398717 -3.207586 1.056743
2.415476 -3.194977 1.056743
6.608218 -2.957377 1.101972
6.615101 -2.905198 1.099900
6.611578 -2.876163 1.097828
6.571912 -2.818105 1.089540
6.545544 -2.766287 1.083324
6.523348 -2.716766 1.077798
6.505434 -2.669394 1.072964
6.494055 -2.625095 1.069165
6.479995 -2.566928 1.064330
0.137548 -2.491152 1.096343
6.467748 -2.509986 1.059841
0.149174 -2.467258 1.086977
6.456997 -2.441178 1.055006
6.457687 -2.467237 1.056387
0.167252 -2.416527 1.066998
6.451564 -2.413419 1.052934
0.180925 -2.164096 1.091369
0.200539 -2.129332 1.076159
0.227790 -2.103731 1.065668
0.401475 -1.895208 1.100629
0.327446 -1.855375 1.072803
0.373647 -1.859315 1.079296
0.335664 -1.835948 1.063528
0.396642 -1.826018 1.064688
0.966367 -1.643152 1.084398
0.880523 -1.631100 1.056862
0.929752 -1.625942 1.067007
1.334379 -1.619778 1.057626
1.384222 -1.616054 1.071123
1.432099 -1.614052 1.084970
1.472223 -1.613382 1.097139
1.788628 -1.607036 1.059819
1.837082 -1.604774 1.073866
1.883599 -1.605281 1.088226
1.918265 -1.606159 1.099152
2.284071 -1.600481 1.059832
2.324540 -1.598758 1.071062
2.377733 -1.598914 1.086402
2.422462 -1.598502 1.099276
2.884636 -1.594345 1.058733
2.929412 -1.592497 1.070013
2.976419 -1.591228 1.081998
3.039062 -1.590798 1.098213
3.676128 -1.614464 1.059087
3.735834 -1.617373 1.072569
3.791186 -1.617851 1.084878
3.823674 -1.615961 1.091912
3.865162 -1.617616 1.101291
3.012279 -1.590199 1.091163
6.711385 -1.550674 1.052934
6.729065 -1.517680 1.054315
6.746601 -1.484565 1.055697
6.778483 -1.454395 1.059150
6.829687 -1.415585 1.065021
-11.074573 -1.377451 1.094833
6.868566 -1.386188 1.069510
6.941369 -1.375682 1.079180
6.994738 -1.360901 1.086087
7.072408 -1.350408 1.096447
-0.800102 0.281243 1.092021
-0.780817 0.268377 1.065159
0.697358 0.335970 1.099756
0.732610 0.389326 1.070093
-0.817827 0.454194 1.092445
-0.706961 0.456763 1.084346
-0.688457 0.449946 1.061321
0.694163 0.441091 1.061321
0.727167 0.432330 1.089623
-0.800970 0.463309 1.081419
-0.779103 0.474540 1.067270
0.769885 0.493420 1.069659
-24.075085 5.695540 1.091647
-23.982191 5.762037 1.088624
-23.850298 5.818481 1.083988
-24.151129 6.160531 1.099103
-23.911833 6.188468 1.090034
-23.585655 6.191977 1.077338
-23.288719 6.200997 1.065851
-22.992008 6.208020 1.054363
-22.879499 8.377232 1.076532
-22.789213 8.434504 1.073912
-22.712837 8.496496 1.071896
21.275816 11.740044 1.073912
21.225975 11.809381 1.073509
21.223839 11.905399 1.075323
-20.303774 12.447038 1.054363
21.366570 12.480618 1.091848
-20.770864 12.534725 1.072300
-20.577591 12.516285 1.065246
-21.287397 12.644552 1.092453
-21.165976 12.672587 1.088825
19.436716 -15.801421 1.104141
19.526745 -15.761720 1.105955
19.784857 -15.743222 1.113613
20.524239 -15.754491 1.137394
19.601135 -15.709085 1.106963
20.346594 -15.731305 1.131147
20.638710 -15.728174 1.140417
20.773169 -15.716321 1.144448
19.851454 -15.683354 1.114218
19.992556 -15.681798 1.118652
20.137833 -15.682518 1.123287
20.779966 -15.607709 1.142029
20.870365 -15.561955 1.143843
20.936607 -15.497927 1.144448
21.010706 -15.439543 1.145455
21.149233 -15.427937 1.149687
4.982593 -10.085935 1.102880
5.024433 -10.081852 1.104222
5.068541 -10.082049 1.106010
5.133696 -10.079758 1.108469
5.198956 -10.077103 1.110928
5.243295 -10.076564 1.112716
5.287694 -10.075838 1.114504
5.329822 -10.070525 1.115846
5.371976 -10.065039 1.117187
5.416518 -10.063766 1.118975
5.481059 -10.057108 1.121211
5.548071 -10.054456 1.123893
5.590398 -10.048084 1.125234
5.637620 -10.050225 1.127470
5.682474 -10.047824 1.129258
5.727379 -10.045231 1.131046
5.774817 -10.046766 1.133282
5.822335 -10.048091 1.135517
5.869933 -10.049209 1.137753
5.915082 -10.045821 1.139541
5.960280 -10.042243 1.141329
6.032020 -10.042889 1.144682
6.151937 -10.042976 1.150271
6.200036 -10.042629 1.152506
6.101324 -10.038857 1.147588
-10.466928 -4.163184 1.104222
-10.523577 -4.100859 1.106904
-10.486030 -4.128447 1.104669
-10.533180 -4.062308 1.106457
-10.528687 -4.018413 1.104669
-10.528672 -3.976357 1.103327
6.763138 -3.083560 1.128909
6.623028 -2.936299 1.102663
0.117459 -2.626764 1.150661
0.127828 -2.558973 1.123502
0.121759 -2.262563 1.134904
0.142594 -2.217660 1.114763
0.164036 -2.191628 1.103433
0.214355 -2.018940 1.149324
0.312387 -2.003870 1.148165
0.318993 -1.978157 1.135411
0.317971 -1.928953 1.109904
0.332231 -1.765467 1.141317
0.359330 -1.741156 1.130340
0.383453 -1.728378 1.125998
0.432809 -1.715396 1.125274
0.483512 -1.701815 1.125274
0.513155 -1.693169 1.125274
1.020987 -1.708616 1.128455
0.536736 -1.685812 1.125274
0.582096 -1.675214 1.127807
0.634802 -1.665783 1.133190
0.682523 -1.650888 1.135406
0.720047 -1.645899 1.141317
0.990168 -1.670253 1.102948
0.719799 -1.635042 1.135407
1.205781 -1.614139 1.141208
1.228021 -1.608430 1.145846
1.497054 -1.612121 1.104482
1.530808 -1.609959 1.114448
1.579344 -1.608176 1.129449
1.631376 -1.609810 1.146968
1.945517 -1.606012 1.107581
1.986579 -1.605179 1.120224
2.034862 -1.603526 1.135052
2.071990 -1.603698 1.146914
2.448592 -1.597420 1.106672
2.483530 -1.595568 1.116533
2.531312 -1.595256 1.130502
2.577947 -1.593356 1.143924
3.079316 -1.591361 1.108788
3.133120 -1.591551 1.122889
3.173567 -1.591271 1.133464
3.902216 -1.617141 1.109497
3.948309 -1.620116 1.120048
3.994469 -1.622789 1.130599
4.045204 -1.626973 1.142322
4.086985 -1.627227 1.151700
3.196285 -1.588724 1.139104
3.232554 -1.585686 1.148270
-11.173250 -1.350137 1.103327
-11.187787 -1.312287 1.104222
7.120885 -1.333919 1.102663
7.222909 -1.326950 1.116476
7.383455 -1.329818 1.138578
-11.676825 -1.287074 1.147588
-11.231883 -1.277729 1.107798
-0.827283 0.295696 1.128477
-0.735816 0.301427 1.127686
-1.028855 0.327912 1.140961
0.720573 0.350257 1.135666
-0.861723 0.451362 1.132872
-0.821954 0.440016 1.122272
-0.766119 0.438055 1.133426
-0.742844 0.459993 1.122721
-0.731353 0.461733 1.112168
-23.679647 10.996745 1.146866
-23.518976 11.022094 1.141425
-23.385515 11.059271 1.137192
-23.139359 11.041861 1.127922
-22.974636 11.061880 1.122279
-22.854996 11.102715 1.118652
-22.851992 11.200016 1.120264
-21.790989 12.535429 1.107769
-21.652020 12.556281 1.103335
21.954659 12.721559 1.117241
-22.625793 12.806266 1.142432
-22.537563 12.860408 1.140417
-22.614058 13.326009 1.152509
21.336487 -15.450713 1.156338
21.516047 -15.466539 1.162585
21.659370 -15.455180 1.167019
21.721342 -15.385257 1.167422
21.848480 -15.361064 1.171050
21.938841 -15.310436 1.172863
22.041431 -15.267900 1.175282
22.139877 -15.222003 1.177499
22.217636 -15.161523 1.178708
22.394518 -15.167927 1.184754
22.480497 -15.111959 1.186366
22.852045 -15.131170 1.199264
22.612072 -15.086077 1.190195
22.917252 -15.059542 1.199869
6.248208 -10.042067 1.154742
6.288514 -10.028633 1.155636
6.334124 -10.023461 1.157424
6.377099 -10.013891 1.158765
6.420084 -10.004145 1.160106
6.468487 -10.002581 1.162342
6.516958 -10.000802 1.164577
6.565494 -9.998807 1.166813
6.614096 -9.996594 1.169048
6.665525 -9.998307 1.171731
6.714269 -9.995649 1.173966
6.765867 -9.996896 1.176648
6.814749 -9.993791 1.178884
6.863693 -9.990464 1.181119
6.912695 -9.986918 1.183354
6.961757 -9.983152 1.185590
7.034026 -9.975028 1.188720
7.103502 -9.962415 1.191402
7.164382 -9.973960 1.195426
7.190396 -9.936789 1.194085
0.878240 -7.841954 1.192797
0.934433 -7.847925 1.194523
0.990744 -7.853494 1.196250
1.032817 -7.855575 1.197286
1.074944 -7.857407 1.198322
1.130826 -7.857064 1.199358
1.186764 -7.856322 1.200394
1.229794 -7.862244 1.202121
0.502596 -7.793092 1.181400
0.530132 -7.796231 1.182091
0.571492 -7.800745 1.183127
0.626729 -7.806437 1.184508
0.682505 -7.816671 1.186581
0.738454 -7.826506 1.188653
0.780648 -7.834865 1.190379
0.822438 -7.838044 1.191415
-0.150124 -7.748403 1.173112
-0.109512 -7.746595 1.172767
-0.068932 -7.744598 1.172422
-0.028399 -7.749794 1.173112
0.025750 -7.762183 1.174839
0.080041 -7.771718 1.176220
0.134420 -7.778396 1.177256
0.188720 -7.777268 1.177256
0.243165 -7.780711 1.177947
0.284082 -7.784292 1.178638
0.325042 -7.787633 1.179328
0.379402 -7.785175 1.179328
0.433743 -7.782336 1.179328
0.474787 -7.784914 1.180019
-0.512814 -7.700601 1.168623
-0.459050 -7.703993 1.168623
-0.418299 -7.698885 1.167587
-0.377982 -7.700958 1.167587
-0.324210 -7.703410 1.167587
-0.270505 -7.707960 1.167932
-0.216892 -7.717086 1.168968
-0.176831 -7.732979 1.171040
-0.954940 -7.655866 1.168278
-0.764649 -7.647347 1.164133
-0.724597 -7.651235 1.164133
-0.671376 -7.658574 1.164479
-0.618485 -7.670479 1.165515
-0.565834 -7.686956 1.167241
-1.110053 -7.599888 1.163443
-1.071274 -7.612941 1.164479
-1.018756 -7.625142 1.165169
-0.979768 -7.637751 1.166205
-0.911912 -7.636164 1.164824
-0.869664 -7.621165 1.162061
-0.829194 -7.620682 1.161371
-0.790829 -7.639706 1.163443
-1.360095 -7.551584 1.162407
-1.308186 -7.565775 1.163097
-1.268151 -7.570090 1.162752
-1.226518 -7.564394 1.161025
-1.172520 -7.565434 1.159989
-1.135109 -7.586172 1.162061
-1.514998 -7.506884 1.160335
-1.465416 -7.531856 1.162407
-1.411418 -7.534604 1.161371
-1.707129 -7.447768 1.157917
-1.668107 -7.456593 1.157917
-1.614962 -7.463217 1.157227
-1.560768 -7.464620 1.155845
-2.106793 -7.391078 1.164133
-2.051170 -7.391291 1.162061
-2.010494 -7.394749 1.161025
-1.969835 -7.398009 1.159989
-1.929200 -7.401021 1.158953
-1.876269 -7.409509 1.158263
-1.822718 -7.415214 1.157227
-1.769758 -7.422942 1.156536
-1.731993 -7.436940 1.157227
-2.345445 -7.344841 1.167587
-2.306952 -7.357011 1.167587
-2.268403 -7.369000 1.167587
-2.228352 -7.376025 1.166896
-2.174006 -7.381901 1.165515
-2.133954 -7.388436 1.164824
-2.078299 -7.388853 1.162752
-2.457359 -7.297698 1.166205
-2.407899 -7.319380 1.166896
-2.369546 -7.331898 1.166896
-2.695738 -7.244768 1.170349
-2.668722 -7.249486 1.169659
-2.628198 -7.256363 1.168623
-2.574168 -7.265199 1.167241
-2.527655 -7.278899 1.166896
-2.869483 -7.207035 1.174148
-2.817300 -7.222279 1.173458
-2.763276 -7.232519 1.172076
-2.722754 -7.239949 1.171040
-2.946935 -7.146274 1.170349
-2.915984 -7.177658 1.172767
-2.978564 -7.117034 1.168278
-3.068758 -7.054317 1.165169
-3.021379 -7.080123 1.165860
-3.147612 -7.000501 1.162752
-3.113917 -7.023667 1.163788
-3.226640 -6.948039 1.160680
-3.181133 -6.977157 1.161716
-3.323335 -6.902310 1.160680
-3.275068 -6.925344 1.160680
-3.417173 -6.850805 1.159989
-3.371441 -6.878942 1.160680
-3.514764 -6.806827 1.160680
-3.466041 -6.828988 1.160335
-3.608289 -6.754908 1.160335
-3.562198 -6.782123 1.160680
-3.675262 -6.710235 1.159299
-3.642439 -6.733753 1.159989
-3.766154 -6.653956 1.158608
-3.719610 -6.680087 1.158608
-3.844679 -6.603179 1.157917
-3.810046 -6.623209 1.157917
-3.922513 -6.551457 1.157227
-3.879194 -6.582948 1.157917
-4.002265 -6.503057 1.157227
-3.968155 -6.523914 1.157227
-4.056224 -6.463680 1.156536
-4.024941 -6.489047 1.157227
-4.157258 -6.399179 1.156536
-4.122354 -6.418763 1.156191
-4.087364 -6.438181 1.155845
-4.212935 -6.362648 1.156536
-4.179569 -6.384628 1.156536
-4.265518 -6.321520 1.155845
-4.350555 -6.257307 1.155155
-4.317726 -6.279991 1.155155
-4.423792 -6.199649 1.154464
-4.380404 -6.230382 1.154464
-4.502136 -6.149146 1.155155
-4.469871 -6.172626 1.155155
-4.563314 -6.097698 1.154464
-4.532787 -6.123491 1.154809
-4.619347 -6.061574 1.155155
-4.584571 -6.081732 1.154464
-4.693064 -6.004696 1.155155
-4.661552 -6.029178 1.155155
-4.755686 -5.955222 1.155155
-4.724432 -5.980032 1.155155
-4.804342 -5.909643 1.154464
-4.776445 -5.938585 1.155155
-4.869128 -5.862819 1.155155
-4.835227 -5.884416 1.154464
-4.943608 -5.806674 1.155845
-4.911537 -5.830574 1.155500
-5.017427 -5.749568 1.156536
-4.973936 -5.780702 1.155845
-5.055800 -5.712548 1.156191
-5.113687 -5.657452 1.155845
-5.084002 -5.684158 1.155845
-5.162848 -5.612597 1.155845
-5.244134 -5.543586 1.156536
-5.215028 -5.570959 1.156536
-5.271366 -5.514256 1.156191
-5.316393 -5.465075 1.155615
-5.361577 -5.416137 1.155155
-5.463690 -5.348581 1.158608
-5.425047 -5.366653 1.156536
-5.389871 -5.387997 1.155155
-5.559356 -5.292261 1.162752
-5.526211 -5.316136 1.161716
-5.489429 -5.336380 1.159989
-5.614364 -5.251992 1.164479
-5.581394 -5.276225 1.163443
-5.720120 -5.203074 1.170695
-5.663634 -5.224418 1.166896
-5.877302 -5.179724 1.184854
-5.816822 -5.180762 1.178638
-5.763848 -5.187978 1.173803
-5.899803 -5.108787 1.180710
-5.872987 -5.139609 1.180710
-5.969357 -5.042720 1.182091
-5.925907 -5.059439 1.178983
-6.118721 -5.006345 1.194869
-6.067631 -5.017805 1.190379
-6.020381 -5.032014 1.186580
-6.142938 -4.972685 1.194523
-6.134077 -4.912605 1.188307
-6.205371 -4.846430 1.190379
-6.170197 -4.871159 1.188653
-6.282217 -4.836219 1.197977
-6.226163 -4.827775 1.191070
3.267802 -3.112993 1.179250
3.184834 -3.076610 1.158734
3.285994 -3.065312 1.174561
3.307053 -3.010231 1.169285
3.310858 -3.034894 1.173974
0.102962 -2.729437 1.191867
0.111725 -2.710533 1.184375
0.086866 -2.391338 1.193649
0.098911 -2.379510 1.188404
0.109781 -2.344961 1.172669
0.115913 -2.303769 1.153786
0.123534 -2.104607 1.190135
0.147834 -2.082635 1.179468
0.171315 -2.057699 1.167411
0.244070 -2.058686 1.171739
0.273162 -2.058289 1.173439
0.198005 -2.033957 1.156280
0.227377 -2.039806 1.160918
0.297761 -2.026240 1.158599
0.239491 -1.879885 1.199243
0.262977 -1.857023 1.187759
0.289577 -1.816448 1.166528
1.104151 -1.818834 1.200338
1.063513 -1.765757 1.165556
0.761190 -1.696841 1.178470
0.844996 -1.697729 1.200003
1.247260 -1.712900 1.195700
0.852932 -1.684097 1.194936
0.881451 -1.667454 1.193986
0.932928 -1.651597 1.200319
1.227296 -1.667121 1.170193
4.276110 -1.650863 1.196248
1.251511 -1.609924 1.153962
1.280439 -1.611948 1.164164
1.331192 -1.611292 1.180628
1.375960 -1.613270 1.196473
1.680245 -1.606708 1.162179
1.734036 -1.601158 1.178543
1.780534 -1.598655 1.193649
2.095080 -1.604109 1.154407
2.129391 -1.601038 1.164708
2.185232 -1.595757 1.181566
2.231993 -1.594384 1.196550
2.627419 -1.592445 1.158442
2.657999 -1.592025 1.167481
4.149749 -1.627087 1.165768
4.290927 -1.639396 1.198593
2.684587 -1.588896 1.174877
2.730352 -1.583944 1.187751
2.772777 -1.582832 1.200352
3.271629 -1.576628 1.157435
3.345432 -1.583497 1.177880
3.360196 -1.569016 1.179995
-12.280421 -1.310234 1.201685
7.548982 -1.332442 1.161371
7.617023 -1.317052 1.170349
7.811994 -1.322697 1.197286
-0.975537 0.291707 1.182119
-1.055891 0.343716 1.171042
-0.868851 0.317416 1.184121
-1.078158 0.364479 1.198202
-0.846005 0.404744 1.199471
-0.834513 0.406422 1.187959
0.733784 0.374326 1.165591
-0.811791 0.412983 1.167127
-24.185061 10.925050 1.164198
-23.987675 10.936865 1.157144
-23.872198 10.985027 1.153718
-24.168085 12.055025 1.183142
-24.192801 12.172997 1.186164
-24.047695 12.205365 1.181529
-23.982712 12.277850 1.180522
-23.944147 12.363783 1.180723
-23.825514 12.408058 1.177297
-23.768787 12.484179 1.176693
-23.557301 12.478208 1.169034
-23.491568 12.548594 1.168027
-23.412436 12.611564 1.166414
-23.368271 12.693211 1.166414
-23.293148 12.757905 1.165004
-23.282082 12.963958 1.168631
-23.153917 12.998681 1.164802
-22.746698 13.297418 1.156539
23.049189 -15.031306 1.203698
23.206369 -15.018617 1.208736
23.275471 -14.948319 1.209542
23.399128 -14.912628 1.212968
23.577715 -14.910969 1.219014
23.864321 -14.744655 1.225261
24.073236 -14.757874 1.232718
24.252655 -14.751639 1.238764
24.432322 -14.744331 1.244810
24.633663 -14.748780 1.251864
24.650635 -14.642293 1.250251
24.637032 -14.518108 1.247228
1.433019 -7.893192 1.211100
1.476154 -7.895303 1.212481
1.534069 -7.899388 1.214553
1.591620 -7.900623 1.216280
1.635472 -7.904318 1.218006
1.678381 -7.902899 1.219042
1.710283 -7.903670 1.220078
1.779157 -7.901130 1.221805
1.837082 -7.900574 1.223532
1.880712 -7.900495 1.224913
1.925574 -7.904960 1.226985
1.986143 -7.912936 1.230093
2.031846 -7.919233 1.232511
2.075799 -7.918052 1.233892
2.133597 -7.912932 1.235273
2.191441 -7.907385 1.236655
2.235503 -7.905348 1.238036
2.280987 -7.907794 1.240108
2.341760 -7.910671 1.242871
2.387435 -7.912539 1.244943
2.433203 -7.914115 1.247015
2.479043 -7.915458 1.249087
2.524972 -7.916509 1.251159
1.273323 -7.870349 1.204193
1.331537 -7.880800 1.206956
1.389525 -7.888382 1.209373
-6.403714 -4.823800 1.210409
-6.378947 -4.840137 1.209028
-6.326602 -4.835310 1.202811
-6.411001 -4.776885 1.207301
-6.458878 -4.690935 1.205574
-6.428234 -4.720282 1.204538
-6.600638 -4.654520 1.218697
-6.564165 -4.663192 1.215244
-6.515528 -4.680143 1.211100
-6.610694 -4.609971 1.216280
-6.693154 -4.546962 1.220769
-6.644549 -4.547921 1.215244
-6.632710 -4.573899 1.215934
-6.761411 -4.507603 1.225604
-6.729515 -4.537413 1.224223
-6.800500 -4.448434 1.225604
-6.784930 -4.472145 1.225604
-6.949761 -4.408758 1.240108
-6.905123 -4.414320 1.235273
-6.868856 -4.424986 1.231820
-6.824293 -4.430062 1.226985
-7.008174 -4.343565 1.242180
-6.976939 -4.374926 1.240799
-7.059464 -4.307431 1.245634
-7.031731 -4.324265 1.243562
-7.128652 -4.264712 1.250814
-7.087165 -4.290456 1.247706
-7.330654 -3.912558 1.251159
-7.346970 -3.839277 1.248396
0.067680 -2.202014 1.239757
0.085346 -2.163701 1.220047
0.102688 -2.129702 1.202656
0.125226 -1.957766 1.238423
0.146781 -1.925279 1.220268
0.181455 -1.898473 1.206336
0.210810 -1.891145 1.203802
0.220709 -1.890018 1.203802
1.147484 -1.875427 1.237438
1.269933 -1.802904 1.240916
0.245048 -1.754718 1.246234
0.265109 -1.742513 1.240203
0.797733 -1.753649 1.217735
0.813905 -1.748574 1.219001
1.267960 -1.767160 1.225071
0.288368 -1.732429 1.236091
0.331614 -1.713987 1.229237
0.383239 -1.698905 1.226496
0.420652 -1.693317 1.228552
0.830716 -1.721507 1.208869
0.443449 -1.684247 1.226496
0.481530 -1.673698 1.226496
0.532250 -1.662673 1.229237
0.581088 -1.654552 1.234377
0.625696 -1.648472 1.240660
0.965742 -1.642077 1.205069
1.106327 -1.642633 1.249400
1.114475 -1.642328 1.251933
4.351182 -1.645034 1.212661
0.637328 -1.638822 1.237461
0.990420 -1.637876 1.210389
1.034128 -1.638218 1.224068
1.079595 -1.639690 1.239267
1.400631 -1.613476 1.204975
1.431419 -1.614439 1.215989
1.481148 -1.612790 1.232801
1.527412 -1.608003 1.247486
1.827248 -1.600688 1.210434
1.879655 -1.600764 1.228792
1.929030 -1.602595 1.246800
2.274295 -1.594787 1.210598
2.326558 -1.595350 1.228079
2.373718 -1.597440 1.244312
3.496261 -1.617710 1.222296
3.558575 -1.631486 1.240627
2.794722 -1.582451 1.206926
2.829763 -1.582759 1.217608
2.877979 -1.583453 1.232400
2.917344 -1.585293 1.244726
-12.760475 -1.316419 1.244604
7.977783 -1.322139 1.220078
8.114331 -1.315683 1.238727
-12.819502 -1.277300 1.249522
-12.818924 -1.232067 1.249075
-12.813230 -1.186395 1.248181
-12.801882 -1.117776 1.246616
-12.795172 -1.049710 1.245499
-12.798758 -1.005040 1.245499
-12.807155 -0.960730 1.245946
-12.810430 -0.916019 1.245946
-12.813549 -0.871297 1.245946
-12.816512 -0.826564 1.245946
-12.819321 -0.781821 1.245946
-12.818246 -0.714410 1.245499
